-0.149393 -0.183629 -0.370965
-0.136509 -0.234986 -0.194202
-0.158785 0.248719 -0.409594
-0.118872 0.257776 -0.416492
-0.232116 0.206402 -0.317708
-0.232840 0.053714 -0.184178
-0.035043 -0.321998 -0.174938
-0.025427 -0.363285 -0.087489
0.076783 -0.333175 0.921334
0.247992 0.021083 0.751275
0.246593 -0.047650 0.808861
0.062012 0.130166 0.652838
0.021158 0.085360 0.729793
0.150809 0.120583 0.373350
0.121315 0.152412 0.433167
0.210244 0.066246 0.266066
0.227988 0.054868 0.217144
0.203974 0.064948 0.310125
0.028656 -0.461442 0.726369
0.253085 -0.077702 0.282177
0.246431 -0.031321 0.278912
0.237423 0.002626 0.271715
0.281833 -0.123167 0.079937
0.263521 -0.138358 0.023937
0.098543 -0.418972 0.286344
0.258749 0.016955 -0.370545
0.127945 0.184947 -0.540868
0.127112 -0.086592 -0.481383
0.272350 0.091672 -0.313389
0.269808 0.054023 -0.353333
0.233159 0.208585 -0.411779
0.180482 0.197140 -0.221864
0.148941 0.215625 -0.215743
0.162802 0.168833 -0.170443
0.189082 0.154913 -0.187597
0.135941 -0.312117 -0.060114
0.104131 -0.279442 -0.175320
0.114766 -0.244690 -0.219948
0.274901 0.120223 -0.326092
0.134980 -0.183038 -0.369068
0.115529 -0.179130 -0.390853
0.370269 -0.066175 -0.325746
0.378064 -0.094869 -0.368369
0.077263 -0.439311 0.352252
0.018973 -0.459332 0.397572
0.195347 -0.392394 0.568453
0.096531 -0.456436 0.623064
0.208532 -0.281848 0.180062
0.203624 -0.285853 0.147169
0.184306 -0.307803 0.073248
0.164061 -0.329473 0.046664
0.230003 -0.247528 0.169390
0.182012 -0.378783 0.727417
0.207970 -0.355150 0.729885
0.094481 -0.439376 0.730172
0.207964 0.042808 0.440774
0.180495 0.085183 0.410297
0.155716 0.139552 0.228162
0.133622 0.137116 0.342594
0.066400 0.186362 0.251249
0.058109 0.191568 0.210264
0.048514 0.184487 0.335306
0.014844 0.192848 0.339470
0.129589 0.030219 0.821102
0.157021 0.043301 0.793501
0.235331 -0.340918 0.673051
0.243568 -0.320608 0.700262
0.245738 -0.271615 0.774825
0.252811 -0.246472 0.787482
-0.122330 -0.278169 -0.134674
-0.190141 0.181055 -0.208641
-0.203092 0.157155 -0.192967
-0.163217 0.233779 -0.270694
-0.205977 0.186725 -0.234997
-0.191811 0.209775 -0.253129
-0.270973 0.099269 -0.290328
-0.128581 -0.027996 -0.507346
-0.109813 -0.089966 -0.486180
-0.116315 0.177921 -0.550490
-0.108873 0.201789 -0.574361
-0.065924 0.130888 -0.565034
-0.056728 -0.390239 0.000644
-0.099819 -0.411485 0.235436
-0.149322 -0.386068 0.278657
-0.166864 -0.299258 -0.024486
-0.235594 -0.008485 0.301223
-0.248389 -0.061526 0.286768
-0.253813 -0.099190 0.299464
-0.207779 0.066788 0.291102
-0.201356 0.066453 0.338873
-0.197005 0.119416 0.195775
-0.215449 0.077889 0.232369
-0.152759 0.186816 -0.062205
-0.064850 0.174390 0.334094
-0.088981 0.161794 0.352909
-0.052493 0.182512 0.298984
-0.052377 0.188355 0.223539
-0.237771 0.072661 0.730884
-0.144196 0.001527 0.848548
-0.138519 0.025766 0.823439
-0.226434 -0.299806 0.783803
-0.203880 -0.328954 0.788151
-0.254038 -0.310035 0.699428
-0.254618 -0.324736 0.660774
-0.266602 -0.295320 0.676771
-0.134168 0.195560 0.587215
-0.146350 -0.259143 0.914194
-0.189254 -0.247122 0.876903
-0.199579 -0.218118 0.877299
-0.162517 0.115706 0.716328
-0.130931 0.214627 0.486617
-0.103358 0.183280 0.511888
-0.059820 0.201115 0.076560
-0.022348 0.212662 0.009915
-0.211655 0.150672 -0.055209
-0.274872 -0.051107 0.171041
-0.270964 -0.084269 0.182249
-0.253126 -0.146795 0.263978
-0.251490 -0.173280 0.282081
-0.233324 -0.241781 0.048118
-0.274794 -0.290511 0.595277
-0.280186 -0.280901 0.629046
-0.235384 -0.353538 0.572057
-0.220802 -0.368817 0.543034
-0.078962 -0.461893 0.513364
-0.052194 -0.469381 0.492192
-0.216751 -0.078133 -0.417390
-0.106185 0.006427 -0.514481
-0.242345 0.116280 -0.447174
-0.261453 0.149729 -0.423604
-0.053413 0.242512 -0.570915
-0.089268 0.249444 -0.522185
-0.357507 -0.123327 -0.354737
-0.185884 -0.152564 -0.248007
-0.044817 0.264899 -0.300362
-0.070861 0.258970 -0.270289
-0.209062 -0.027874 -0.154700
-0.203153 -0.101611 -0.198809
-0.163579 0.125720 -0.105853
-0.099474 0.191386 -0.105158
0.125557 0.195632 0.563747
0.177846 0.197603 0.619593
0.081913 -0.260679 0.949206
0.219281 -0.228445 0.850870
0.177412 -0.305980 0.851251
0.141392 -0.307520 0.888617
0.155245 0.117957 0.710663
0.068820 0.198584 -0.030780
0.040146 0.208624 -0.011774
0.028488 0.202734 0.061148
0.310667 -0.109993 0.602312
0.290195 -0.018144 0.576528
0.275811 -0.000045 0.547280
0.245301 -0.116047 -0.018409
0.248501 -0.188660 0.407844
0.248095 -0.193469 0.363182
0.241640 -0.220389 0.340733
0.207044 -0.303066 0.295755
0.177157 -0.337519 0.216260
0.186161 -0.331663 0.255070
0.158446 -0.364597 0.218002
0.134301 -0.365072 0.075827
0.150589 -0.357025 0.115023
0.085298 -0.410287 0.181862
0.085636 -0.406645 0.153385
0.422106 -0.120284 -0.419411
0.375203 -0.113366 -0.466958
0.258537 -0.092816 -0.421786
0.038952 0.198754 -0.615916
0.230488 -0.053127 -0.220161
0.247508 -0.065141 -0.261651
0.167464 0.249898 -0.371055
0.158723 0.243739 -0.441359
0.153950 0.251681 -0.411727
0.251206 0.175106 -0.289682
0.040757 -0.351311 -0.106628
0.019872 -0.324732 -0.176630
0.200937 -0.125947 -0.080121
0.194936 -0.123466 -0.188716
0.216461 -0.044220 -0.179188
0.022447 0.255865 -0.240316
0.070632 0.255125 -0.251419
0.320969 -0.123205 -0.327665
0.352986 -0.127942 -0.339321
0.159028 -0.135432 -0.447823
0.139522 -0.165402 -0.409881
0.216375 -0.135462 -0.467328
0.255065 0.139642 -0.436449
0.108992 0.040485 -0.498847
0.329742 -0.094620 -0.391645
0.076783 -0.457978 0.458798
0.228179 -0.355706 0.620644
0.222650 -0.361022 0.648231
0.273907 -0.275144 0.543608
0.278958 -0.275471 0.575231
0.253128 -0.162084 0.325728
0.250107 -0.183939 0.259221
0.263267 -0.049098 0.192302
0.291915 0.122764 0.514785
0.268736 0.139913 -0.015541
0.281142 0.170438 -0.023997
0.022807 0.197296 0.194770
0.270265 0.109467 0.670622
0.247813 0.174192 0.650229
0.259022 -0.098373 0.811037
0.244366 -0.137923 0.838432
0.223641 -0.169801 0.861900
0.146799 0.209673 -0.512736
-0.182983 -0.192490 -0.091051
-0.187883 0.061319 -0.092104
-0.179091 0.090045 -0.079772
-0.092455 -0.278301 -0.194281
-0.207014 0.224763 -0.315930
-0.114027 -0.148977 -0.433470
-0.342527 -0.160026 -0.441312
-0.257715 -0.169478 -0.432604
-0.004634 -0.099870 -0.501863
-0.004657 0.271572 -0.454915
-0.052209 0.264453 -0.510808
-0.155081 0.130925 -0.498097
-0.218828 -0.029857 -0.412122
-0.180982 -0.086480 -0.464856
-0.371811 -0.081087 -0.357074
-0.441656 -0.145284 -0.372098
-0.012385 -0.481434 0.580666
-0.225113 -0.287359 0.418351
-0.219221 -0.357861 0.498643
-0.229346 -0.324562 0.467587
-0.293413 -0.195202 0.528578
-0.294174 -0.240374 0.628548
-0.301787 -0.211190 0.619140
-0.255417 -0.082989 -0.006287
-0.292228 -0.000580 0.608752
-0.293839 -0.020582 0.587521
-0.297352 -0.107984 0.535141
-0.293127 0.189536 0.541233
-0.271249 0.080210 0.139303
-0.229730 0.065709 0.207388
-0.204815 0.129458 0.422571
-0.160359 0.149850 0.174014
-0.052387 0.169109 0.547072
-0.064250 0.164247 0.577973
-0.252146 0.149059 0.667928
-0.066628 0.007999 0.846793
-0.078009 -0.013594 0.870283
-0.063905 0.042557 0.803135
-0.022994 0.054901 0.780396
-0.038321 -0.445108 0.773121
-0.027541 -0.411686 0.841252
-0.233583 -0.198636 0.840051
-0.234506 -0.099446 0.843597
-0.067022 0.172325 0.522632
-0.236876 0.215599 0.105260
-0.211729 0.036235 0.405360
-0.215504 0.038061 0.355837
-0.286048 0.095874 0.553821
-0.282611 0.025811 0.568143
-0.234426 -0.028385 0.414295
-0.248875 -0.093153 0.381279
-0.284915 -0.125174 0.101996
-0.265098 -0.185373 0.131811
-0.239273 -0.239769 0.099533
-0.164179 -0.333339 0.067139
-0.151591 -0.351958 0.088828
-0.240039 -0.236189 0.164352
-0.097257 -0.457195 0.576763
-0.127591 -0.439538 0.594464
-0.198161 -0.387041 0.643140
-0.203129 -0.386326 0.609183
-0.030512 -0.448620 0.352121
-0.078702 -0.442028 0.375775
-0.342021 -0.048036 -0.326844
-0.020828 0.104322 -0.562978
-0.078454 -0.098528 -0.494907
-0.424398 -0.126802 -0.348663
-0.226147 -0.141846 -0.294709
-0.166708 -0.213305 -0.121570
-0.160208 -0.212621 -0.149072
-0.060818 0.253942 -0.242210
-0.016603 0.249342 -0.217709
-0.045498 0.243348 -0.204968
0.102852 -0.233674 0.945632
0.040451 -0.110077 0.928046
0.213186 0.154518 0.675746
0.209579 0.133001 0.697353
0.061886 0.165504 0.475704
0.090532 0.163334 0.463370
0.047209 0.154946 0.556919
0.129418 0.169727 0.141160
0.268387 0.138734 0.120061
0.228896 0.166895 0.140633
0.223654 0.198518 0.127753
0.311887 -0.122148 0.666152
0.281542 -0.223029 0.732115
0.235517 -0.014971 -0.020003
0.266530 -0.080545 0.189004
0.194625 -0.281867 0.014767
0.224928 -0.273627 0.397276
0.213117 -0.303544 0.388986
0.127926 -0.340895 -0.017029
0.270293 -0.034957 -0.367169
0.279183 0.004119 -0.349668
0.017762 0.084214 -0.546932
0.043023 0.168215 -0.619571
0.392607 -0.157326 -0.397281
0.184375 -0.174417 -0.311654
0.046118 -0.221059 -0.360319
0.035264 -0.179846 -0.427709
0.011684 -0.165443 -0.450995
0.041327 0.266190 -0.321417
0.073410 0.265678 -0.391794
0.263561 0.140227 -0.283880
0.257235 0.102730 -0.241677
0.144771 0.197824 -0.188590
0.013213 0.219679 -0.083513
0.170345 -0.219305 -0.115227
0.099303 0.227274 -0.198533
0.176031 -0.170122 -0.193684
0.182267 -0.180842 -0.117658
0.225686 -0.138070 -0.289751
0.300281 -0.166121 -0.426050
0.354777 -0.155266 -0.447181
0.045935 -0.123545 -0.486514
0.226257 0.001321 -0.418088
0.155479 -0.082594 -0.469888
0.074511 -0.466929 0.606046
0.026535 -0.478853 0.627640
0.195159 -0.363184 0.429539
0.315448 -0.132362 0.636973
0.309341 -0.178417 0.604162
0.284830 -0.237254 0.524409
0.300642 -0.199814 0.552025
0.243826 -0.074909 0.386152
0.250223 -0.113888 0.402324
0.224811 -0.000591 0.396225
0.286088 0.032078 0.603062
0.246932 0.040635 0.199979
0.259321 0.065457 0.167772
0.202194 0.100720 0.447757
0.197572 0.153355 0.409235
0.139912 0.191578 0.112277
0.183178 0.139325 0.183551
0.106686 0.144115 0.648702
0.097073 0.152890 0.622440
0.116636 -0.383957 0.818757
0.102046 -0.404285 0.800514
-0.203230 -0.152456 -0.066787
-0.202229 -0.056105 -0.087983
-0.030359 -0.295048 -0.233930
-0.013149 -0.310015 -0.209451
-0.264418 -0.050998 -0.277428
-0.169100 0.189140 -0.507365
-0.251615 0.094948 -0.425028
-0.426764 -0.124329 -0.406993
-0.085077 -0.369937 -0.021973
-0.226791 -0.268983 0.366254
-0.209620 -0.205854 -0.036543
-0.257926 -0.099185 0.228183
-0.252389 -0.066359 0.240274
-0.242896 0.059015 -0.011635
-0.290087 -0.247424 0.666504
-0.281318 -0.232273 0.723486
-0.293601 -0.155173 0.729699
-0.302918 -0.136346 0.706650
-0.221527 0.162889 0.143146
-0.287501 0.178114 0.070206
-0.278873 0.151344 0.093788
-0.183888 0.186412 0.137314
-0.126753 0.196620 0.105556
-0.132488 -0.384748 0.801300
-0.154131 -0.359244 0.814329
-0.102372 -0.353948 0.875818
-0.128390 0.213428 -0.012905
-0.000086 -0.197040 0.947345
-0.020912 -0.217256 0.950494
-0.085867 -0.165206 0.943352
-0.066714 -0.204556 0.950978
-0.121407 -0.075241 0.910496
-0.136731 -0.052730 0.893983
-0.166316 -0.069317 0.893039
-0.197316 -0.083335 0.879483
-0.170942 -0.146879 0.911207
-0.152516 -0.163479 0.925487
-0.139025 -0.134537 0.925400
-0.285725 0.226110 0.537404
-0.279384 0.206369 0.570036
-0.279704 0.165986 0.605010
-0.289731 0.179258 0.396924
-0.109525 0.167148 0.447148
-0.111510 0.200853 0.076636
-0.125639 0.216321 0.021740
-0.125395 0.213582 0.050124
-0.278094 0.158165 -0.020427
-0.294029 0.172130 0.020183
-0.246076 0.147745 0.407763
-0.266041 0.139863 0.427149
-0.279696 0.114947 0.476363
-0.286093 0.063632 0.086029
-0.285390 0.094325 0.101005
-0.287922 0.113555 0.585751
-0.285959 0.095831 0.610945
-0.282622 0.093133 0.639259
-0.251427 -0.035462 0.473865
-0.248051 -0.005027 0.487395
-0.248380 -0.064278 0.449098
-0.257514 -0.098754 0.444410
-0.282771 -0.071464 0.511423
-0.283627 -0.133154 0.484694
-0.274423 -0.092216 0.483412
-0.267721 -0.027915 0.506385
-0.291289 -0.053460 0.104603
-0.286769 -0.068330 0.133043
-0.259726 -0.128126 0.434391
-0.262792 -0.158844 0.436573
-0.245607 -0.208054 0.411049
-0.237812 -0.239776 0.410698
-0.269094 -0.207344 0.461959
-0.263701 -0.239479 0.467284
-0.278762 -0.221150 0.491937
-0.225467 -0.219211 -0.005167
-0.218608 -0.244658 0.010399
-0.121702 -0.443231 0.534586
-0.147213 -0.428158 0.512678
-0.113945 -0.444535 0.488097
-0.170851 -0.408698 0.486717
-0.196257 -0.390231 0.519073
-0.178466 -0.391990 0.442851
-0.157364 -0.415746 0.462310
-0.119398 -0.434491 0.431562
-0.020958 -0.438042 0.285539
-0.065894 -0.431446 0.295890
-0.050431 -0.432630 0.271975
-0.070130 -0.422604 0.233438
-0.027219 -0.429705 0.207710
-0.302056 -0.105981 -0.482217
-0.171233 0.003255 -0.487865
-0.176060 -0.030222 -0.469039
-0.197636 -0.030391 -0.438979
-0.191573 0.104574 -0.469768
-0.103276 0.234250 -0.579545
-0.393450 -0.156948 -0.388224
-0.200362 -0.178366 -0.339287
-0.032626 -0.153085 -0.462422
-0.020689 -0.195342 -0.408595
-0.007993 -0.213618 -0.384143
-0.072627 -0.214681 -0.355756
-0.051287 -0.190789 -0.405706
-0.073864 -0.166588 -0.428428
-0.080730 -0.132309 -0.466655
-0.314420 -0.019327 -0.324563
-0.287020 -0.000674 -0.314313
-0.287716 -0.022751 -0.293918
-0.080048 0.266958 -0.360406
-0.004261 0.268982 -0.338626
-0.031403 0.269816 -0.362309
-0.249160 0.124148 -0.239030
-0.264982 0.128051 -0.285588
-0.228227 0.095063 -0.184282
-0.223178 0.123112 -0.192475
-0.043202 0.215408 -0.090795
-0.011629 0.215230 -0.019930
-0.017778 0.214743 -0.051757
-0.047074 0.208915 -0.039506
0.129993 0.211315 -0.023894
0.137408 0.205424 -0.051724
0.019557 -0.163689 0.941550
0.034329 -0.189947 0.946823
0.053420 -0.241960 0.954019
0.085559 -0.175041 0.945188
0.082723 -0.208600 0.950610
0.187638 -0.080980 0.881830
0.170017 -0.042648 0.875520
0.154435 -0.068846 0.894304
0.118107 -0.136200 0.931853
0.153804 -0.140212 0.918990
0.281114 0.209731 0.566757
0.272245 0.190723 0.607689
0.264666 0.232208 0.577101
0.290815 0.180100 0.397336
0.272374 0.160951 0.407328
0.138481 0.177830 0.421403
0.097024 0.194251 0.000944
0.103049 0.191527 -0.033414
0.130224 0.218987 0.056792
0.122357 0.213629 0.027090
0.137975 0.153579 -0.056501
0.281560 0.117135 0.102926
0.285771 0.129969 0.069393
0.224582 0.046023 0.478386
0.256669 0.081951 0.483646
0.253207 0.053024 0.503751
0.282994 -0.082431 0.752692
0.285285 -0.046612 0.721638
0.301968 -0.110716 0.712096
0.303072 -0.078190 0.677230
0.287175 0.023904 0.638989
0.287650 -0.007116 0.678662
0.287674 -0.087013 0.087272
0.265990 -0.064167 0.015474
0.278806 -0.050451 0.046333
0.277925 -0.002303 0.043813
0.284623 0.043031 0.082552
0.280122 0.031723 0.051185
0.240777 -0.220304 0.206562
0.244841 -0.221895 0.175283
0.254486 -0.183674 0.183583
0.256738 -0.196015 0.153777
0.268191 -0.120000 0.177072
0.261077 -0.153555 0.187111
0.259807 -0.108458 0.220040
0.255183 -0.207126 0.057504
0.244324 -0.212540 0.030808
0.227845 -0.235529 0.022055
0.144563 -0.414954 0.410408
0.112372 -0.434948 0.403545
0.099715 -0.423491 0.314404
0.119047 -0.422357 0.352109
0.154415 -0.392207 0.336750
0.072155 -0.409174 0.123748
0.042605 -0.423451 0.175088
0.043917 -0.418890 0.132407
0.016930 -0.418182 0.089046
0.046826 -0.411124 0.085491
0.333615 -0.100798 -0.435187
0.225206 -0.036053 -0.401646
0.126811 0.014996 -0.509118
0.018634 -0.005741 -0.516141
0.064357 0.040695 -0.520392
0.203477 0.100061 -0.463526
0.071527 0.180917 -0.614193
0.363068 -0.137575 -0.489693
0.300703 -0.141350 -0.487346
0.169955 -0.174733 -0.406553
0.265766 -0.172477 -0.383359
0.226512 -0.177173 -0.394485
0.183497 -0.181803 -0.372641
0.131996 -0.142426 -0.433026
0.168191 -0.178672 -0.225759
0.079103 0.261708 -0.444810
0.023284 0.270053 -0.411709
0.235687 -0.011262 -0.208135
0.243892 0.013664 -0.218762
0.261511 0.056602 -0.253190
0.250173 0.079018 -0.223306
0.222086 0.042068 -0.165141
0.234353 0.030336 -0.190441
0.234077 0.064171 -0.190804
0.017441 0.225052 -0.114345
0.070330 0.213841 -0.120577
0.098910 0.207068 -0.138183
0.175349 -0.262748 -0.055037
0.157451 -0.278453 -0.072211
0.164781 -0.249675 -0.091876
0.145376 -0.250110 -0.142620
0.201400 -0.056042 -0.099202
0.195842 -0.102120 -0.150369
0.199294 -0.086695 -0.119824
0.203182 -0.041175 -0.127124
0.003592 -0.298040 -0.237193
0.009211 -0.257789 -0.311327
0.066530 -0.247041 -0.295506
0.045164 -0.268698 -0.274431
0.040040 -0.246575 -0.319734
0.225910 0.218838 -0.353710
0.112850 0.251002 -0.462828
0.188065 -0.148137 -0.235065
0.310346 -0.057981 -0.303059
0.280509 -0.022143 -0.286734
0.377006 -0.101163 -0.326340
0.411050 -0.131040 -0.469999
0.043808 0.264102 -0.522885
0.047921 0.221322 -0.597261
0.267001 0.105134 -0.403787
0.158717 -0.048450 -0.475821
0.161885 -0.020757 -0.484652
0.193789 0.017502 -0.470325
0.196777 -0.016501 -0.447398
0.239594 -0.076968 -0.395352
0.344764 -0.112853 -0.481551
0.289461 -0.111508 -0.487712
0.064814 -0.429326 0.281420
0.025976 -0.435591 0.275244
0.007311 -0.440566 0.298971
0.005793 -0.434974 0.250432
0.024452 -0.430805 0.225726
0.047761 -0.425218 0.208718
0.184857 -0.397841 0.505268
0.163948 -0.417152 0.531995
0.159970 -0.416820 0.502683
0.115525 -0.447385 0.534675
0.123546 -0.433761 0.434254
0.102686 -0.448688 0.467486
0.148357 -0.416707 0.438825
0.218204 -0.190540 -0.036362
0.242042 -0.190100 0.005061
0.237802 -0.250474 0.412857
0.251999 -0.241312 0.441551
0.247004 -0.219673 0.414940
0.290059 -0.140620 0.501724
0.274530 -0.135080 0.467398
0.279960 -0.223618 0.497309
0.280794 -0.194549 0.481583
0.290182 -0.060945 0.104679
0.286879 -0.072728 0.133711
0.289466 -0.017585 0.112779
0.286438 0.009202 0.122362
0.259783 -0.113391 0.443022
0.261089 -0.089213 0.463105
0.248586 -0.035969 0.475868
0.265483 -0.010457 0.521444
0.268046 -0.041198 0.509255
0.278654 -0.074251 0.509120
0.282331 0.076737 0.632729
0.282277 0.140230 0.617677
0.283326 0.107232 0.627058
0.276976 0.060153 0.038828
0.267618 0.096664 0.012777
0.283406 0.091567 0.067084
0.293366 0.159443 0.437179
0.270249 0.133711 0.439578
0.202360 0.179059 -0.063188
0.164836 0.210665 -0.068991
0.035883 0.183297 0.365949
0.005555 0.187464 0.385554
0.021124 0.179258 0.419803
0.093799 0.158135 0.423584
0.060652 0.167734 0.437387
0.083808 0.161664 0.392699
0.165494 0.159786 0.664509
0.142954 0.179507 0.619693
0.011311 0.052705 0.783201
0.031845 0.070612 0.758457
0.040172 0.042570 0.801700
0.039255 0.021488 0.829124
0.114234 0.008905 0.846268
0.106787 -0.031326 0.884837
0.089761 -0.011157 0.866779
0.082194 0.024718 0.827856
0.116036 0.064424 0.777727
0.096534 0.047483 0.799761
-0.000129 -0.416611 0.834031
0.012967 -0.400301 0.860030
0.078441 -0.425384 0.784623
0.030765 -0.421163 0.819405
0.044130 -0.430724 0.796136
0.046342 -0.401906 0.844288
-0.180970 0.068937 -0.046188
-0.069497 0.217726 -0.139489
-0.072301 0.207569 -0.109006
-0.096521 0.204947 -0.134226
-0.203614 0.042071 -0.135118
-0.216201 0.055409 -0.157462
-0.192674 0.110779 -0.143158
-0.203746 0.079493 -0.142997
-0.256281 -0.017816 -0.263329
-0.245299 0.068905 -0.209981
-0.247814 0.035855 -0.217923
-0.065957 0.265490 -0.440108
-0.030594 0.270967 -0.415217
-0.161952 -0.182962 -0.239893
-0.078765 -0.185174 -0.400324
-0.109396 -0.175708 -0.398115
-0.261893 -0.167951 -0.356041
-0.241416 -0.158272 -0.323408
-0.410218 -0.145647 -0.457730
-0.373983 -0.155928 -0.418724
-0.213885 0.166416 -0.480260
-0.230775 0.139622 -0.464019
-0.040804 -0.025235 -0.515658
-0.066995 -0.052780 -0.514069
-0.077654 -0.016818 -0.516372
-0.065643 0.092769 -0.529560
-0.088380 0.077912 -0.501121
-0.297400 -0.097726 -0.436711
-0.310197 -0.096232 -0.406858
-0.403342 -0.112779 -0.424562
-0.333554 -0.102205 -0.448826
-0.386394 -0.112644 -0.459599
-0.087615 -0.410297 0.184969
-0.112334 -0.395967 0.164504
-0.136605 -0.376246 0.166295
-0.135153 -0.357497 0.042515
-0.129565 -0.373016 0.107552
-0.120085 -0.375294 0.078883
-0.100705 -0.385555 0.059124
-0.165810 -0.356487 0.215896
-0.184552 -0.336606 0.244097
-0.176923 -0.353189 0.271344
-0.229172 -0.264571 0.328650
-0.219239 -0.287455 0.313870
-0.207632 -0.317201 0.323648
-0.204627 -0.313884 0.280925
-0.228470 -0.257574 0.260792
-0.216375 -0.285582 0.273200
-0.240601 -0.222951 0.346025
-0.235474 -0.236459 0.378748
-0.241897 -0.208576 0.378689
-0.250475 -0.168163 0.401148
-0.249892 -0.146795 0.378279
-0.264484 -0.025010 0.005176
-0.276283 -0.058444 0.034063
-0.284785 -0.065153 0.063336
-0.284495 -0.004027 0.054549
-0.290538 -0.007758 0.096009
-0.272802 0.029709 0.025088
-0.282200 0.042232 0.054914
-0.312908 -0.114797 0.656745
-0.306828 -0.079728 0.664465
-0.296525 -0.045789 0.684848
-0.291702 -0.086026 0.731736
-0.300235 -0.082439 0.701403
-0.271119 0.004446 0.718112
-0.283834 0.025327 0.655718
-0.281451 0.006613 0.690341
-0.287942 0.153575 0.579046
-0.283097 0.137957 0.609966
-0.245775 0.091577 -0.010062
-0.170826 0.103613 -0.045344
-0.004247 0.199661 0.184012
-0.040359 0.193319 0.188234
-0.038384 0.197508 0.147351
-0.055882 0.197154 0.117268
-0.085797 0.183487 0.154511
-0.309984 0.186204 0.429952
-0.162689 0.162767 0.664063
-0.139300 0.165725 0.641533
-0.119796 0.166952 0.617527
-0.227098 -0.067668 0.843813
-0.248443 -0.044877 0.798545
-0.250364 -0.016448 0.774981
-0.231507 0.007248 0.781168
-0.223910 0.032291 0.768954
-0.254017 0.007191 0.749946
-0.267533 -0.029010 0.751211
-0.277452 -0.075520 0.763022
-0.019306 -0.030302 0.881272
-0.050527 -0.037224 0.888038
-0.008379 -0.059370 0.902942
-0.061695 -0.071849 0.912627
-0.107448 -0.033295 0.889063
-0.152280 -0.210817 0.922747
-0.126914 -0.206340 0.937956
-0.096620 -0.210304 0.947535
-0.070729 -0.238319 0.953289
0.011852 -0.315167 0.948699
0.033346 -0.297431 0.952040
0.009634 -0.258196 0.950629
-0.146957 0.210265 -0.515230
-0.170150 0.230950 -0.463181
-0.166845 0.216170 -0.491442
-0.044711 -0.360108 0.908908
-0.009771 -0.369151 0.903103
-0.100924 -0.115093 0.929247
-0.074249 -0.123267 0.933305
-0.040534 -0.120380 0.931998
-0.211957 0.157544 0.678134
-0.015415 0.096556 0.713568
-0.032856 0.085122 0.735238
-0.054135 0.121754 0.676843
-0.025142 0.112675 0.688610
-0.074935 0.152214 0.617532
-0.070719 0.135326 0.653081
-0.102504 0.129408 0.675037
-0.100206 0.114732 0.699551
-0.016881 0.187220 0.363737
-0.045211 0.175228 0.411527
-0.045692 0.181591 0.360470
-0.077282 0.164518 0.423233
-0.042490 0.173865 0.444625
-0.179786 0.207049 -0.072095
-0.290114 0.153203 0.040797
-0.264961 0.118316 -0.005289
-0.280718 0.124275 0.026263
-0.238389 0.060756 0.484233
-0.265512 0.025937 0.522394
-0.255883 0.052266 0.506864
-0.077717 -0.431957 0.774203
-0.122695 -0.417857 0.740474
-0.094509 -0.438104 0.732413
-0.127751 -0.402663 0.773220
-0.150003 -0.393542 0.754764
-0.203378 -0.368680 0.704380
-0.171905 -0.396213 0.694106
-0.172302 -0.386415 0.728995
-0.129463 -0.424941 0.696100
-0.096109 -0.449831 0.677130
-0.257469 -0.184910 0.176474
-0.240550 -0.229607 0.195329
-0.255139 -0.143947 0.230068
-0.246797 -0.211354 0.036373
-0.107135 -0.433656 0.392585
-0.106056 -0.428901 0.364588
-0.135712 -0.417418 0.381700
-0.148758 -0.412604 0.411469
-0.166653 -0.383894 0.349491
-0.140292 -0.399152 0.309999
-0.145152 -0.403961 0.358132
-0.100844 -0.421268 0.309387
-0.028007 -0.423564 0.142808
-0.047130 -0.423828 0.183133
-0.046260 -0.417291 0.119592
-0.042043 -0.413824 0.086713
-0.014689 -0.413615 0.052922
-0.377300 -0.104685 -0.413712
-0.249756 -0.022528 -0.382920
-0.149246 0.027793 -0.494562
0.000367 0.021190 -0.518286
-0.035590 0.006774 -0.518792
-0.220092 0.099867 -0.455676
-0.112982 0.147951 -0.531382
-0.040008 0.189246 -0.622165
-0.074638 0.184714 -0.610810
-0.085986 0.245749 -0.554224
-0.359516 -0.119608 -0.492346
-0.328337 -0.123759 -0.498210
-0.241947 -0.154461 -0.464786
-0.290570 -0.150855 -0.475521
-0.155187 -0.172802 -0.405575
-0.178890 -0.178918 -0.388689
-0.225508 -0.177513 -0.360123
-0.155481 -0.208770 -0.197054
-0.131971 -0.212895 -0.256866
-0.137131 -0.221399 -0.224824
-0.224365 -0.093110 -0.248459
-0.235602 -0.018793 -0.212231
-0.240419 -0.040137 -0.242425
-0.153416 0.244751 -0.439375
-0.188592 0.235585 -0.416521
-0.156932 0.252233 -0.363939
-0.134936 0.257490 -0.382997
-0.263759 0.164676 -0.328376
-0.240212 0.177416 -0.277155
-0.221816 0.019154 -0.167875
-0.012814 -0.346718 -0.129635
-0.053376 -0.359204 -0.075698
-0.046354 -0.334430 -0.136279
-0.205425 -0.029142 -0.060205
0.084456 -0.350521 0.895550
0.102765 -0.322825 0.909787
0.021034 -0.015316 0.867393
0.012011 -0.040843 0.888491
0.054743 -0.031203 0.883567
0.026712 -0.064675 0.906956
0.053190 -0.055520 0.900813
0.010240 -0.103703 0.923936
0.221003 0.035196 0.771097
0.223034 0.012515 0.790082
0.263092 -0.069151 0.790692
0.263221 -0.030938 0.765664
0.266609 -0.004064 0.735077
0.011982 0.141255 0.619387
0.029215 0.126953 0.649229
0.045120 0.139379 0.619466
0.014318 0.102166 0.702208
0.102233 0.095413 0.728893
0.067593 0.088904 0.732809
0.088552 0.117635 0.689795
0.054422 0.116899 0.678049
0.237425 0.159115 0.398468
0.293540 0.209842 0.034035
0.273062 0.208609 0.070239
0.243091 0.210803 0.104222
0.292181 0.202991 -0.030515
0.107096 0.153124 0.354513
0.128873 0.137557 0.397187
0.173246 0.098245 0.367613
0.200388 0.101566 0.216372
0.181802 0.114011 0.245272
0.204854 0.085731 0.244263
0.190543 0.086153 0.294530
0.183278 0.088557 0.338191
0.207848 0.053267 0.341590
0.226389 0.024294 0.293941
0.234090 0.026273 0.243464
0.061267 -0.441738 0.761657
0.062498 -0.451519 0.731050
0.028072 -0.448871 0.763968
0.006810 -0.470601 0.699419
0.057040 -0.462393 0.692984
0.256817 -0.096393 0.251794
0.254091 -0.063628 0.248685
0.229966 0.002419 0.334223
0.251711 -0.083180 0.325248
0.247641 -0.048315 0.307367
0.273520 -0.161324 0.077070
0.267609 -0.158585 0.048748
0.272847 -0.114854 0.040732
0.280525 -0.091056 0.057189
0.211901 -0.230668 -0.019565
0.197245 -0.255150 -0.022101
0.193823 -0.235760 -0.048148
0.199272 -0.325437 0.336826
0.216262 -0.288234 0.333023
0.134787 -0.403751 0.309540
0.145144 -0.389642 0.284378
0.124603 -0.403455 0.266290
0.112569 -0.402227 0.214686
0.096637 -0.412876 0.242468
0.135008 -0.388643 0.233832
0.038988 -0.406396 0.039941
0.065741 -0.380865 -0.012416
0.043150 -0.396629 0.012450
0.019641 -0.385138 -0.037403
0.291804 -0.072652 -0.374728
0.347316 -0.082454 -0.369734
0.093006 0.167371 -0.577908
0.053920 0.117218 -0.560398
0.071598 0.140377 -0.569910
0.060835 0.155444 -0.597199
0.240914 0.027046 -0.405650
0.115629 0.096521 -0.493311
0.113890 0.131218 -0.517073
0.115786 0.205957 -0.570307
0.070583 0.254996 -0.540742
0.093286 -0.096865 -0.492289
0.129409 -0.059528 -0.495718
0.332495 -0.153922 -0.371064
0.269889 -0.090338 -0.292662
0.276827 -0.057001 -0.286475
0.269452 0.072621 -0.288634
0.269856 0.048168 -0.319792
0.273048 0.085932 -0.348497
0.189107 0.227782 -0.447039
0.207927 0.224834 -0.421184
0.218984 0.195833 -0.264368
0.195603 0.213335 -0.264514
0.163289 0.236706 -0.279526
0.130505 0.236464 -0.240438
0.201773 0.111898 -0.167115
0.094941 -0.334011 -0.083260
0.077668 -0.332530 -0.110681
0.090795 -0.307736 -0.142462
0.118188 -0.297476 -0.117009
0.131142 -0.274531 -0.131727
0.136797 -0.294752 -0.087958
0.204750 -0.020496 -0.058297
0.191308 0.051284 -0.060210
0.182851 0.091336 -0.086173
0.198783 0.031188 -0.084462
0.202698 -0.022430 -0.097416
0.202065 0.015301 -0.109393
0.193554 0.079093 -0.120973
0.091800 -0.270043 -0.212853
0.084610 -0.257393 -0.248871
0.074188 -0.228197 -0.323732
0.106432 -0.213485 -0.308396
0.110431 -0.229165 -0.264751
0.129610 -0.243324 -0.189117
0.193201 0.229486 -0.304985
0.200771 0.232792 -0.341360
0.166759 0.247483 -0.335709
0.138331 0.251690 -0.296425
0.275515 0.125632 -0.374699
0.081460 -0.209557 -0.353002
0.099884 -0.192328 -0.368717
0.122682 -0.194818 -0.336774
0.437542 -0.152382 -0.374908
0.047657 -0.079156 -0.509621
0.085298 -0.059235 -0.512223
0.120054 0.230814 -0.515011
-0.000410 0.253415 -0.559911
0.033432 0.254827 -0.557000
0.013875 0.179498 -0.621054
0.116407 0.155157 -0.535134
0.257854 0.058542 -0.389091
0.243025 0.061195 -0.422667
0.015776 0.130999 -0.589448
0.407963 -0.102524 -0.343653
0.423780 -0.125698 -0.347314
0.086344 -0.443584 0.387975
0.048059 -0.451522 0.374564
0.004195 -0.448616 0.338481
0.037504 -0.446689 0.342285
0.069887 -0.433934 0.315306
0.213844 -0.375903 0.591568
0.193694 -0.388575 0.633325
0.185189 -0.392658 0.663114
0.163338 -0.415862 0.615317
0.132469 -0.435186 0.624238
0.122635 -0.437937 0.653824
0.154025 -0.420159 0.646112
0.109347 -0.450963 0.589658
0.135339 -0.436290 0.577983
0.192990 -0.395420 0.535951
0.157906 -0.422311 0.564641
0.160856 -0.355437 0.186657
0.186500 -0.316204 0.163673
0.169051 -0.339164 0.160355
0.171328 -0.326354 0.095056
0.221032 -0.256731 0.058404
0.193051 -0.300364 0.105569
0.211681 -0.273712 0.091239
0.227633 -0.254948 0.105652
0.236590 -0.238549 0.132145
0.265443 -0.183586 0.124198
0.274188 -0.156531 0.130497
0.283786 -0.119783 0.110536
0.284943 -0.101717 0.136070
0.204482 0.018248 -0.032482
0.179667 -0.349204 0.798877
0.176319 -0.366014 0.772071
0.163355 -0.385660 0.751411
0.110952 -0.414983 0.768700
0.143795 -0.414845 0.708086
0.117539 -0.431180 0.707138
0.175235 -0.392147 0.701522
0.205297 -0.372826 0.677735
0.218343 0.023643 0.376367
0.200564 0.060664 0.380548
0.194503 0.068533 0.429239
0.110667 0.165982 0.236804
0.135793 0.148750 0.247541
0.117951 0.153999 0.294861
0.111180 0.154226 0.325876
0.167126 0.110981 0.318483
0.156494 0.125014 0.295846
0.176433 0.108943 0.276643
0.159326 0.131663 0.258701
0.180562 0.125958 0.213041
0.027579 0.195665 0.229401
0.004461 0.196108 0.277547
0.043969 0.191402 0.273449
0.017304 0.193762 0.308885
0.087217 0.173390 0.280026
0.241874 0.181481 0.373570
0.237451 0.060474 0.738045
0.256062 0.043815 0.722465
0.187787 0.026930 0.800917
0.181784 0.050694 0.778667
0.162577 0.071285 0.759905
0.137801 -0.026081 0.873156
0.147337 -0.007906 0.852986
0.177567 0.009728 0.824279
0.213680 -0.037811 0.844781
0.192043 -0.016401 0.839061
0.286261 -0.262355 0.660849
0.266766 -0.290200 0.685828
0.273321 -0.257846 0.723184
0.251579 -0.285810 0.744519
0.206421 -0.326939 0.786595
0.212866 -0.338467 0.754017
0.228972 -0.308756 0.767720
0.222227 -0.349187 0.698356
-0.066935 -0.318010 -0.151298
-0.093125 -0.301555 -0.143986
-0.097413 -0.324151 -0.093065
-0.071415 -0.332292 -0.114043
-0.157194 -0.289105 -0.055126
-0.121700 -0.311312 -0.080589
-0.140412 -0.272088 -0.108732
-0.188986 0.147014 -0.166987
-0.172972 0.169928 -0.173602
-0.161506 0.195791 -0.196448
-0.217042 0.209494 -0.290377
-0.189482 0.227740 -0.288856
-0.145237 0.217052 -0.218106
-0.119332 0.223470 -0.202477
-0.163694 0.222572 -0.244794
-0.128851 0.234334 -0.234485
-0.194280 0.215019 -0.470006
-0.231932 0.207208 -0.412848
-0.216855 0.211481 -0.442835
-0.269719 0.055118 -0.350608
-0.269874 0.046375 -0.321111
-0.268051 0.063308 -0.277932
-0.275386 0.086330 -0.320841
-0.309287 -0.101477 -0.312888
-0.294643 -0.072024 -0.294009
-0.305305 -0.131597 -0.331233
-0.303425 -0.160226 -0.368878
-0.324852 -0.143558 -0.358619
-0.106143 -0.050519 -0.509606
-0.147392 -0.056591 -0.483141
-0.124068 0.121599 -0.505531
-0.255757 0.032814 -0.381631
-0.089739 0.158312 -0.569238
-0.054899 0.155242 -0.601347
-0.276938 -0.083222 -0.385931
-0.337725 -0.077975 -0.368864
-0.303576 -0.079266 -0.374389
-0.016882 -0.403019 0.012000
-0.035848 -0.387618 -0.026470
-0.017340 -0.376118 -0.061095
-0.105867 -0.413574 0.271313
-0.139375 -0.382754 0.216348
-0.126010 -0.398536 0.239734
-0.153031 -0.376990 0.247961
-0.111830 -0.402284 0.209583
-0.189119 -0.349536 0.336075
-0.205410 -0.325778 0.352709
-0.195192 -0.347255 0.380164
-0.183574 -0.295152 0.005928
-0.202543 -0.276095 0.020022
-0.256898 -0.149233 0.011669
-0.264951 -0.169287 0.045693
-0.286044 -0.097804 0.078289
-0.277316 -0.143192 0.065029
-0.270012 -0.101195 0.026083
-0.244520 -0.000358 0.225673
-0.245109 -0.032766 0.273055
-0.235059 0.003015 0.269310
-0.253905 -0.090821 0.258446
-0.252126 -0.102257 0.352123
-0.244840 -0.044509 0.310108
-0.249648 -0.078624 0.323129
-0.240889 -0.035668 0.352886
-0.226855 0.010511 0.339886
-0.008466 -0.464512 0.724451
-0.045930 -0.454968 0.740501
-0.085959 -0.448876 0.705616
-0.056989 -0.462719 0.692422
-0.007017 -0.475640 0.674585
-0.033870 -0.466232 0.710070
-0.189004 0.091560 0.297470
-0.197033 0.096347 0.250066
-0.227226 0.045505 0.242527
-0.216720 0.042412 0.321459
-0.221717 0.037646 0.286295
-0.124740 0.143151 0.409698
-0.104773 0.153186 0.379245
-0.151101 0.121535 0.355168
-0.141140 0.129818 0.390624
-0.011846 0.191418 0.325610
-0.013962 0.194828 0.226971
-0.088778 0.176417 0.214492
-0.071492 0.178627 0.247008
-0.073060 0.174868 0.281260
-0.253174 0.170990 0.383159
-0.234411 0.102369 0.716674
-0.258702 0.033126 0.722022
-0.261380 0.058387 0.705109
-0.136623 0.059780 0.783598
-0.159501 0.078264 0.755390
-0.160113 0.041688 0.799878
-0.183638 0.025208 0.808980
-0.187587 0.045878 0.783896
-0.196604 -0.049847 0.863683
-0.193670 -0.022750 0.846075
-0.183654 0.001374 0.831913
-0.132528 -0.016146 0.870546
-0.159667 -0.034631 0.876660
-0.047265 -0.376732 0.883096
-0.023094 -0.390164 0.874855
-0.257661 -0.251107 0.771437
-0.268294 -0.260734 0.735574
-0.276285 -0.268297 0.691641
-0.260811 -0.286028 0.721079
-0.234048 -0.339268 0.694754
-0.219171 -0.345861 0.723967
-0.241079 -0.316228 0.730958
-0.215733 -0.331659 0.758230
-0.019144 -0.331801 0.934477
-0.102873 0.172994 0.587112
-0.134724 0.210562 0.554719
-0.168585 0.219830 0.583192
-0.123703 -0.274794 0.923932
-0.088763 -0.259878 0.945747
-0.115879 -0.234409 0.941538
-0.158740 -0.291021 0.883211
-0.168211 -0.255643 0.895070
-0.242905 -0.242166 0.807044
-0.225669 -0.239978 0.833253
-0.229827 -0.272087 0.809413
-0.206090 -0.258912 0.850669
-0.195714 -0.287828 0.842408
-0.194933 -0.309534 0.822815
-0.190399 0.140426 0.696240
-0.206694 0.119691 0.712931
-0.204295 0.056755 0.761288
-0.204060 0.083242 0.742764
-0.124447 0.206125 0.520107
-0.110564 0.188884 0.548908
-0.115495 0.180891 0.475178
-0.128755 0.200135 0.455348
-0.001493 0.208614 0.067183
-0.035924 0.202709 0.094333
-0.038729 0.207605 0.042702
-0.087019 0.195980 -0.007551
-0.076306 0.200566 0.026848
-0.055960 0.205636 0.000752
-0.091553 0.195834 0.053533
-0.197328 0.119833 -0.042818
-0.250813 0.142215 -0.037984
-0.299197 0.159732 0.452159
-0.298711 0.150587 0.515787
-0.305205 0.169304 0.488974
-0.275239 0.037555 0.685921
-0.281154 0.055224 0.656805
-0.256849 -0.005326 0.195095
-0.270484 0.001562 0.170256
-0.278644 0.020577 0.147479
-0.240886 -0.217803 0.251118
-0.243472 -0.208303 0.278334
-0.236493 -0.239065 0.300781
-0.252795 -0.140521 0.347674
-0.251039 -0.174159 0.315243
-0.253386 -0.137267 0.295402
-0.252679 -0.218490 0.072825
-0.261179 -0.311071 0.552819
-0.278568 -0.278767 0.562991
-0.255493 -0.312135 0.522746
-0.243511 -0.336412 0.539239
-0.223601 -0.365537 0.626520
-0.231995 -0.353355 0.651865
-0.243626 -0.344168 0.597912
-0.247526 -0.337952 0.628787
-0.265907 -0.309500 0.615893
-0.022717 -0.479368 0.547309
-0.006483 -0.476497 0.498071
-0.077375 -0.465199 0.548691
-0.048055 -0.473520 0.524771
-0.069492 -0.455367 0.433948
-0.062711 -0.462026 0.465152
-0.024221 -0.467844 0.450737
-0.059689 0.039902 -0.521015
-0.000396 0.223101 -0.587729
-0.024885 0.237875 -0.574820
-0.104102 0.247613 -0.478494
-0.198341 -0.107530 -0.476661
-0.176232 -0.162707 -0.428737
-0.179163 -0.134462 -0.460540
-0.154344 -0.145254 -0.439982
-0.211842 -0.152134 -0.455702
-0.335917 -0.088022 -0.320725
-0.165087 -0.181841 -0.314017
-0.167217 -0.173374 -0.280526
-0.204523 -0.118803 -0.227151
-0.207915 -0.129414 -0.260330
-0.199488 -0.150463 -0.281164
-0.115922 0.260141 -0.319484
-0.088210 0.261923 -0.301891
-0.025427 0.260601 -0.266173
-0.012481 0.264918 -0.294221
-0.221292 -0.033805 -0.187141
-0.216697 -0.068533 -0.202489
-0.191850 -0.121252 -0.180242
-0.199418 -0.089679 -0.172413
-0.200562 -0.063781 -0.151888
-0.134117 0.159337 -0.090754
-0.129827 0.198295 -0.168670
-0.129212 0.184366 -0.140097
-0.167487 0.148991 -0.144320
-0.147669 0.158353 -0.122260
0.114219 0.173850 0.599517
0.138677 0.194545 0.589734
0.170845 0.225357 0.577622
0.148236 0.219372 0.559713
0.131713 -0.238662 0.930757
0.106804 -0.275778 0.935111
0.182981 -0.205399 0.898583
0.203957 -0.210979 0.875925
0.174045 -0.243000 0.895560
0.192903 -0.250285 0.872388
0.164120 -0.285450 0.881792
0.182986 -0.329144 0.820808
0.196796 -0.301554 0.830708
0.233011 -0.261880 0.809180
0.207837 -0.266389 0.844926
0.210079 0.101137 0.722011
0.174946 0.100361 0.728073
0.196895 0.080168 0.742709
0.099762 0.179126 0.525173
0.128230 0.209116 0.534858
0.125887 0.207244 0.487302
0.126825 0.197430 0.443558
0.018187 0.210665 0.016291
0.057428 0.198208 0.076251
0.053659 0.200218 0.026604
0.177157 0.082699 -0.042567
0.206816 0.088581 -0.031784
0.229971 0.070946 -0.021937
0.254195 0.110569 -0.010468
0.256116 0.071951 -0.002323
0.294747 0.147048 0.566678
0.311138 0.193662 0.491694
0.298774 0.172898 0.549131
0.292165 0.220273 0.526535
0.286922 0.175656 0.582291
0.300703 -0.076681 0.570005
0.290530 -0.073806 0.539956
0.282637 -0.029521 0.547193
0.292699 -0.003108 0.612220
0.300680 -0.050112 0.597605
0.308792 -0.086174 0.617629
0.304218 -0.053863 0.630245
0.248378 -0.156225 -0.002313
0.234096 -0.143995 -0.029769
0.241857 -0.215693 0.382912
0.230411 -0.251274 0.364939
0.254873 -0.127149 0.342880
0.251565 -0.163365 0.355326
0.251105 -0.157755 0.394444
0.175913 -0.362608 0.321516
0.166898 -0.368673 0.288706
0.187963 -0.335200 0.284018
0.229714 -0.248674 0.223933
0.216950 -0.270724 0.208728
0.220909 -0.266421 0.245260
0.208144 -0.294545 0.259426
0.202765 -0.297779 0.221291
0.151384 -0.362969 0.159323
0.120668 -0.392267 0.178727
0.116140 -0.390454 0.142084
0.103052 -0.380600 0.043887
0.070799 -0.396002 0.043353
0.086988 -0.392378 0.066937
0.111462 -0.385137 0.090438
0.299776 -0.098214 -0.432678
0.292324 -0.095339 -0.402526
0.219108 -0.102732 -0.472779
0.065982 0.074604 -0.521679
0.084683 0.105537 -0.518341
0.008681 -0.062925 -0.511403
0.051397 -0.035685 -0.517537
0.087428 -0.030684 -0.517669
0.207489 0.162818 -0.486303
0.240591 0.181016 -0.450223
0.239212 0.145063 -0.460167
0.094276 0.204411 -0.599216
0.139334 0.234330 -0.479672
0.385130 -0.150329 -0.450422
0.424464 -0.148484 -0.437545
0.280011 -0.156142 -0.342257
0.252465 -0.157625 -0.328395
0.146460 -0.202492 -0.242961
0.153227 -0.205772 -0.211460
0.210075 -0.111457 -0.228646
0.227615 -0.097097 -0.252547
0.259685 -0.027711 -0.268061
0.243637 -0.027642 -0.238078
0.203820 0.232164 -0.392022
0.180384 0.240929 -0.416355
0.126929 0.260400 -0.367634
0.262613 0.170637 -0.330874
0.232130 0.198102 -0.291151
0.212793 0.021275 -0.146943
0.205317 -0.005755 -0.132776
0.203338 0.043852 -0.129438
0.210041 0.069288 -0.157332
0.008410 -0.361188 -0.098264
0.024537 -0.368929 -0.075500
0.011528 -0.339695 -0.146186
0.067548 -0.325944 -0.137373
0.051808 -0.316103 -0.173258
0.206246 -0.066304 -0.061582
0.101140 0.187572 -0.090897
0.125930 0.178443 -0.116995
0.153446 0.145335 -0.099574
0.173099 0.136780 -0.135179
0.186331 0.108350 -0.132010
0.136589 0.188678 -0.160080
0.148698 0.167960 -0.137933
0.215327 -0.071955 -0.196093
0.213148 -0.024733 -0.157109
0.205330 -0.073707 -0.165514
0.092567 0.255919 -0.269498
0.114070 0.259913 -0.316357
0.083778 0.261874 -0.298381
0.043498 0.262979 -0.284145
0.003883 0.262107 -0.268697
0.124000 0.256469 -0.429998
0.205404 -0.130436 -0.254514
0.130630 -0.202597 -0.284630
0.155503 -0.182862 -0.278623
0.180077 -0.162127 -0.269665
0.370081 -0.151502 -0.374498
0.390324 -0.134654 -0.348396
0.173538 -0.109273 -0.464505
0.201919 -0.162753 -0.439707
0.231112 -0.164177 -0.451029
0.084949 0.254535 -0.494624
0.027183 0.233758 -0.578927
0.267322 0.140759 -0.409300
0.095618 0.001628 -0.517606
0.085970 0.057828 -0.505186
0.390360 -0.105449 -0.394367
0.073275 -0.467696 0.545808
0.084931 -0.460292 0.497434
0.035321 -0.475554 0.517774
0.017622 -0.468043 0.446604
0.048355 -0.464287 0.444910
0.048156 -0.468770 0.474517
0.216948 -0.370100 0.546176
0.253500 -0.324841 0.575378
0.232714 -0.351496 0.569750
0.248370 -0.330032 0.546631
0.260419 -0.298787 0.528320
0.262528 -0.302280 0.558153
0.286160 -0.266616 0.629214
0.277972 -0.282655 0.603176
0.254507 -0.319428 0.653519
0.251208 -0.326137 0.614175
0.253674 -0.211805 0.130171
0.253213 -0.217735 0.093336
0.240346 -0.233497 0.058212
0.232419 -0.250595 0.302312
0.244293 -0.207610 0.295474
0.249692 -0.190768 0.319108
0.235217 -0.237886 0.262957
0.254927 -0.154155 0.234498
0.254285 -0.152096 0.266954
0.256483 -0.114860 0.278222
0.252988 -0.166842 0.294209
0.254969 -0.136922 0.307634
0.272141 -0.027147 0.173473
0.273079 0.015717 0.162340
0.260330 -0.004561 0.190405
0.247177 0.010868 0.210426
0.268366 0.065977 0.689895
0.271771 0.025562 0.695684
0.284436 0.122404 0.483381
0.304107 0.162750 0.515849
0.298925 0.148237 0.488613
0.223878 0.118535 -0.032781
0.182305 0.147281 -0.050446
0.292354 0.178527 0.019197
0.004159 0.203074 0.124879
0.047651 0.198807 0.108021
0.036927 0.198283 0.152263
0.086201 0.180770 0.212279
0.088456 0.181768 0.181853
0.091072 0.183427 0.149598
0.159171 0.197364 0.399273
0.308580 0.184930 0.429020
0.311872 0.188222 0.462907
0.269814 0.149621 0.644787
0.246929 0.142891 0.676579
0.254647 0.114089 0.693691
0.235800 -0.080217 0.839959
0.214635 -0.086234 0.864842
0.220212 -0.122150 0.867023
0.197822 -0.152850 0.890187
0.259720 -0.214440 0.793047
0.261246 -0.185816 0.801567
0.238553 -0.182592 0.838753
0.266562 -0.151687 0.800559
0.028352 -0.352076 0.920479
0.197763 0.198452 -0.485464
-0.150847 -0.238586 -0.134231
-0.167797 -0.235445 -0.088321
-0.199751 -0.013464 -0.088326
-0.196508 0.018104 -0.090264
-0.193346 0.039319 -0.069831
-0.189090 0.078925 -0.115642
-0.080236 -0.223943 -0.328123
-0.070983 -0.247347 -0.293406
-0.095792 -0.239890 -0.271381
-0.092003 -0.260714 -0.232625
-0.067702 -0.286285 -0.217278
-0.126813 -0.257469 -0.166908
-0.118635 -0.242603 -0.219762
-0.202136 0.233256 -0.371375
-0.190461 0.239077 -0.344850
-0.132387 0.251056 -0.285321
-0.178299 0.239878 -0.311771
-0.143727 0.253185 -0.314124
-0.269951 0.145511 -0.376990
-0.275595 0.110831 -0.369306
-0.272444 0.131212 -0.319613
-0.124077 -0.194258 -0.348101
-0.098644 -0.191795 -0.374127
-0.127197 -0.204630 -0.292058
-0.101757 -0.218120 -0.309828
-0.137025 -0.106787 -0.462642
-0.113663 -0.125953 -0.453132
-0.356790 -0.147987 -0.470355
-0.292586 -0.164667 -0.442405
-0.265937 -0.173361 -0.387498
-0.285292 -0.170746 -0.411537
-0.350556 -0.158792 -0.396779
-0.319697 -0.164773 -0.414458
-0.045938 -0.115731 -0.492752
0.003491 0.269741 -0.484572
-0.028214 0.268631 -0.490996
-0.072106 0.261995 -0.473473
-0.117930 0.096228 -0.492278
-0.206492 0.023209 -0.456339
-0.232318 -0.002479 -0.405768
-0.223244 0.019280 -0.429334
-0.083283 0.117823 -0.530456
-0.228287 -0.102039 -0.480245
-0.252008 -0.094723 -0.451442
-0.001746 -0.480697 0.637053
-0.039816 -0.477355 0.625347
-0.053438 -0.470653 0.648944
-0.089636 -0.460390 0.606708
-0.056838 -0.472812 0.575373
-0.204118 -0.338174 0.415299
-0.189335 -0.363084 0.408694
-0.219276 -0.325982 0.440895
-0.204269 -0.369052 0.471902
-0.265753 -0.276730 0.503216
-0.246488 -0.303085 0.484140
-0.245326 -0.281330 0.458309
-0.239106 -0.262257 0.428528
-0.280806 -0.258126 0.534445
-0.294586 -0.232326 0.582192
-0.287203 -0.260674 0.597522
-0.302173 -0.204313 0.574175
-0.312044 -0.134421 0.592211
-0.309031 -0.180322 0.616071
-0.296813 -0.141079 0.520081
-0.301176 -0.159543 0.547656
-0.234946 -0.103775 -0.029045
-0.221509 -0.160874 -0.040738
-0.242017 -0.173998 -0.006953
-0.245914 -0.128321 -0.016045
-0.286424 -0.035720 0.544113
-0.296522 -0.070303 0.553543
-0.312126 -0.098567 0.630449
-0.308488 -0.097934 0.590844
-0.307694 -0.063302 0.631482
-0.302979 -0.064412 0.591449
-0.299033 -0.028149 0.618391
-0.309343 0.201387 0.490656
-0.293873 0.148715 0.548040
-0.284859 0.043085 0.125292
-0.262456 0.037643 0.173499
-0.259223 0.066203 0.166898
-0.218750 0.099320 0.192594
-0.242062 0.097841 0.171507
-0.267670 0.108840 0.127997
-0.204338 0.156865 0.402203
-0.175526 0.142944 0.416634
-0.232717 0.121129 0.432327
-0.244046 0.203020 -0.071700
-0.128935 0.158133 0.192513
-0.108578 0.171954 0.172579
-0.136705 0.166614 0.156489
-0.120797 0.178437 0.127965
-0.030849 0.157068 0.586106
-0.009745 0.160721 0.564373
-0.262091 0.194816 0.616857
-0.247774 0.174789 0.649309
-0.272983 0.146759 0.638989
-0.266941 0.114509 0.675437
-0.016058 -0.003526 0.855855
-0.008357 0.016206 0.833209
-0.046762 -0.011803 0.866511
-0.021560 0.036270 0.807965
-0.121314 0.079404 0.758477
-0.088948 0.052762 0.790666
-0.094705 0.033934 0.817287
-0.114303 0.008922 0.846196
-0.004494 -0.449631 0.767771
-0.015107 -0.435601 0.797732
-0.053518 -0.397634 0.850327
-0.057748 -0.426446 0.801348
-0.073746 -0.357616 0.893862
-0.091631 -0.332816 0.910820
-0.058501 -0.338323 0.928229
-0.015369 -0.279285 0.949604
-0.041871 -0.255276 0.953897
-0.044518 -0.316819 0.940788
-0.191801 -0.183380 0.893842
-0.213560 -0.168526 0.871262
-0.215263 -0.113163 0.869185
-0.272303 -0.117763 0.784884
-0.262049 -0.146620 0.804762
-0.257452 -0.105135 0.810641
-0.251422 -0.205377 0.811215
-0.263102 -0.174654 0.800242
-0.243998 -0.149834 0.837153
-0.181127 0.181219 0.647776
-0.235836 0.222290 0.607517
-0.214329 0.198357 0.636538
-0.041875 0.172778 0.497645
-0.077478 0.172672 0.489533
-0.070770 0.169366 0.457809
-0.209298 0.178344 0.383657
-0.291323 0.216881 0.032064
-0.265240 0.208091 0.082691
-0.246898 0.173657 -0.055418
-0.143142 0.140438 -0.061641
-0.113955 0.149102 0.341727
-0.130574 0.142291 0.308697
-0.118715 0.152613 0.282566
-0.107150 0.165966 0.234876
-0.176467 0.123627 0.227093
-0.173365 0.117428 0.255466
-0.144512 0.144984 0.224448
-0.146550 0.138144 0.258426
-0.168738 0.110859 0.314658
-0.149871 0.130973 0.287549
-0.170690 0.101407 0.387570
-0.194138 0.075346 0.365663
-0.214424 0.035323 0.438696
-0.190413 0.079461 0.415059
-0.173792 0.109955 0.427479
-0.282240 0.096567 0.522743
-0.279059 0.060846 0.555910
-0.288595 0.033630 0.622483
-0.287053 0.063563 0.602738
-0.228090 -0.000570 0.375538
-0.223808 0.005235 0.408919
-0.237041 -0.030190 0.380779
-0.246596 -0.069148 0.359155
-0.243524 -0.068064 0.415758
-0.237442 -0.031565 0.442831
-0.271872 -0.177529 0.080813
-0.264993 -0.202141 0.098565
-0.268332 -0.158889 0.161960
-0.282960 -0.103504 0.144734
-0.289076 -0.093006 0.109112
-0.215009 -0.273610 0.076088
-0.169108 -0.322970 0.039367
-0.191067 -0.304155 0.078208
-0.190157 -0.300908 0.050246
-0.162554 -0.352652 0.172416
-0.189336 -0.315666 0.152377
-0.157912 -0.349933 0.122410
-0.175222 -0.325734 0.095704
-0.179864 -0.323460 0.125048
-0.213440 -0.281866 0.146493
-0.217804 -0.271560 0.119675
-0.240094 -0.239246 0.132987
-0.185570 -0.324477 0.180372
-0.219648 -0.270321 0.174311
-0.204592 -0.298684 0.181192
-0.229461 -0.252135 0.217940
-0.114046 -0.442717 0.648361
-0.139222 -0.427537 0.649285
-0.176007 -0.404909 0.632670
-0.175346 -0.401209 0.664514
-0.173708 -0.409491 0.530581
-0.214641 -0.378085 0.575224
-0.160074 -0.420950 0.561472
-0.182630 -0.403631 0.571023
-0.169418 -0.413182 0.595596
-0.122176 -0.443164 0.563832
-0.007783 -0.456051 0.377346
-0.004689 -0.465662 0.423923
-0.046844 -0.458348 0.410577
-0.063732 -0.437188 0.327035
-0.395815 -0.109033 -0.389795
-0.015547 0.133190 -0.592511
-0.239242 0.053168 -0.419431
-0.270331 0.078916 -0.375688
-0.141096 0.172976 -0.521616
-0.053476 -0.087837 -0.505450
-0.254455 -0.110495 -0.288572
-0.277211 -0.124903 -0.310587
-0.190303 -0.160680 -0.097480
-0.187582 -0.141776 -0.134962
-0.174981 -0.176870 -0.146910
-0.173349 -0.176282 -0.186460
-0.267169 0.002525 -0.285972
-0.265245 0.031903 -0.285793
-0.251547 0.178481 -0.419820
-0.253215 0.186170 -0.373593
-0.231121 0.212688 -0.383547
-0.091127 0.241464 -0.225731
-0.076653 0.234913 -0.199038
-0.099122 0.220616 -0.179211
-0.046715 0.234854 -0.175199
-0.013241 0.237289 -0.171624
-0.186205 -0.218381 -0.064976
0.168000 -0.184146 0.915327
0.143641 -0.202190 0.928482
0.114085 -0.177387 0.940834
0.067545 -0.086696 0.920053
0.060181 -0.130055 0.935009
0.094796 -0.107168 0.926742
0.117486 -0.068530 0.907549
0.174512 0.178875 0.642649
0.232384 0.208253 0.619946
0.241535 0.228014 0.598960
0.220920 0.182045 0.647763
0.000161 0.177291 0.471697
0.006047 0.171809 0.499644
0.010447 0.165247 0.538168
0.039710 0.166152 0.495645
0.065923 0.154142 0.589987
0.087691 0.164267 0.567850
0.068849 0.164622 0.531821
0.090279 0.166319 0.494911
0.195882 0.188098 0.381497
0.124191 0.164254 0.181249
0.145973 0.149881 0.199535
0.228240 0.204503 -0.075079
0.220837 0.156296 -0.054248
0.280750 0.169971 0.085517
0.248353 0.181137 0.120973
0.207647 0.155947 0.158859
0.209934 0.131261 0.173484
