-0.081224 -0.269975 -0.155158
-0.129170 -0.300660 -0.086353
-0.236116 0.143135 -0.216201
-0.196107 0.156216 -0.267308
-0.211947 0.220391 -0.197926
-0.277683 0.106783 -0.321350
-0.346889 -0.039723 -0.331970
-0.271446 -0.188011 -0.393397
-0.127011 -0.128993 -0.465198
-0.130173 0.236184 -0.608455
-0.010778 -0.417415 -0.049409
-0.070409 -0.416511 -0.034509
-0.115793 -0.387595 0.239611
-0.130509 -0.410479 0.314225
-0.126853 -0.353503 0.228464
-0.192404 -0.328989 -0.043212
-0.249318 -0.115458 0.017288
-0.204149 0.025617 0.310062
-0.209960 -0.032573 0.321067
-0.224451 -0.046071 0.265848
-0.009706 -0.438934 0.744866
-0.177505 0.089660 0.311367
-0.229351 0.047633 0.318879
-0.185028 0.117002 0.191189
-0.116526 0.112964 0.396211
-0.251759 0.141533 -0.077760
-0.081252 0.152781 0.316198
-0.031111 0.166656 0.269840
-0.111948 0.135677 0.329100
-0.054973 0.167345 0.220662
-0.267848 0.046799 0.752723
-0.118891 0.055401 0.846090
-0.210380 0.034079 0.847284
-0.225300 0.048993 0.823289
-0.193889 0.025080 0.780621
-0.230045 -0.353058 0.762841
-0.257448 -0.281679 0.786777
-0.197020 -0.271303 0.821198
-0.290439 -0.286185 0.694766
-0.134097 0.213850 0.547859
-0.123636 -0.196865 0.897650
-0.156712 -0.289122 0.860657
-0.204680 -0.316365 0.835745
-0.158322 -0.208883 0.911438
-0.158073 0.089671 0.703267
-0.246329 0.075226 0.725710
-0.131093 0.159406 0.540630
-0.120355 0.188936 0.538588
-0.096053 0.221422 0.067831
-0.284233 0.147569 -0.041216
-0.277894 -0.133434 0.276837
-0.222401 -0.214589 0.345805
-0.260193 -0.213674 0.020748
-0.294285 -0.328133 0.594126
-0.310958 -0.272387 0.613232
-0.262329 -0.376540 0.591839
-0.043148 -0.494862 0.464841
-0.103365 -0.445340 0.488281
-0.133965 0.025437 -0.539400
-0.029999 0.270141 -0.575622
-0.103834 0.233023 -0.517284
-0.252936 -0.108402 -0.454283
-0.123040 -0.142333 -0.428728
-0.317925 -0.112959 -0.376616
-0.243611 -0.124556 -0.247936
-0.154161 0.263567 -0.442979
-0.084213 0.241276 -0.322647
-0.044265 0.284436 -0.295283
-0.229501 -0.074079 -0.174265
-0.190712 0.139970 -0.138624
-0.091022 0.209306 -0.095160
0.139366 0.222710 0.584351
0.099835 -0.244267 0.951464
0.232628 -0.202191 0.868856
0.238020 -0.231535 0.850069
0.263696 -0.213856 0.836986
0.159963 -0.323454 0.856092
0.138291 0.109836 0.670819
0.157374 0.189550 0.553155
0.083473 0.175979 -0.001241
0.280769 0.229265 0.525392
0.338821 -0.089354 0.594971
0.328785 -0.083754 0.603065
0.334974 -0.134393 0.598527
0.282304 -0.013368 0.544242
0.271462 -0.064702 0.013117
0.226269 -0.151928 -0.002951
0.266084 -0.248060 0.369099
0.221195 -0.223668 0.390839
0.231924 -0.328907 0.318629
0.195257 -0.323063 0.349044
0.185493 -0.323747 0.272628
0.145642 -0.373550 0.221167
0.116620 -0.340979 0.102827
0.095251 -0.407690 0.136533
0.104478 -0.387071 0.150755
0.066397 -0.374126 0.142734
0.382435 -0.134787 -0.392329
0.409974 -0.087949 -0.485643
0.198338 -0.180546 -0.335067
0.210576 -0.092248 -0.222722
0.151100 0.228790 -0.361145
0.128415 0.246144 -0.415255
0.219205 0.174289 -0.337917
0.065948 -0.385616 -0.045985
0.174660 -0.161874 -0.064131
0.085927 0.218780 -0.150846
0.164368 0.147397 -0.152486
0.193595 0.110401 -0.099758
0.177223 -0.072326 -0.161268
0.048944 0.286064 -0.247791
0.128728 0.287165 -0.348095
0.099209 0.277625 -0.463629
0.173615 -0.154925 -0.214925
0.200427 -0.154674 -0.443562
0.233255 0.095772 -0.465597
0.313622 -0.070073 -0.418273
0.087759 -0.447987 0.477811
0.262246 -0.321347 0.560744
0.244583 -0.282239 0.582857
0.269947 -0.232433 0.050112
0.277610 -0.192949 0.332690
0.216049 -0.189083 0.249122
0.223310 -0.161985 0.257234
0.288060 0.071814 0.683043
0.313336 0.131762 0.516403
0.327648 0.188098 0.491437
0.081812 0.171560 0.093709
0.260887 -0.105444 0.794633
0.251851 -0.182023 0.886067
0.232822 -0.145121 0.904985
-0.155050 -0.186277 -0.075783
-0.061975 -0.251621 -0.228378
-0.076245 -0.185674 -0.352684
-0.154289 -0.144039 -0.421643
-0.266351 -0.189824 -0.425387
0.010491 -0.075801 -0.526784
-0.113216 -0.484647 0.645974
-0.199930 -0.319189 0.461527
-0.325376 -0.195202 0.584104
-0.315350 -0.203082 0.541918
-0.269679 -0.169591 0.508514
-0.324049 -0.174376 0.636347
-0.330660 -0.170703 0.576113
-0.296966 -0.199775 0.616214
-0.268148 -0.120397 -0.041299
-0.313651 -0.003485 0.619441
-0.311172 -0.013252 0.563422
-0.296250 -0.101676 0.557903
-0.323497 -0.113792 0.574733
-0.261513 0.073333 0.181651
-0.235790 0.132785 0.374311
-0.159342 0.168868 0.217688
-0.171297 0.111818 0.157555
-0.044585 0.188024 0.594847
-0.290953 0.110667 0.639603
-0.084398 0.024718 0.830165
0.012401 0.085459 0.797055
-0.066263 -0.457253 0.792622
-0.007875 -0.420259 0.799950
-0.261098 -0.211226 0.854053
-0.210517 -0.190765 0.807042
-0.257239 -0.142969 0.856958
-0.214740 0.150754 0.669641
-0.044937 0.147113 0.517385
-0.251357 0.217301 0.087551
-0.253635 0.243134 0.107133
-0.168203 0.159134 0.338726
-0.173669 0.100133 0.338299
-0.117610 0.119980 0.249390
-0.201488 0.126067 0.385304
-0.274068 0.055251 0.533115
-0.204516 -0.038227 0.442475
-0.198146 -0.007418 0.457507
-0.225363 -0.048872 0.375463
-0.227678 -0.128434 0.393726
-0.297533 -0.123957 0.113201
-0.241913 -0.192484 0.177712
-0.257911 -0.224253 0.107521
-0.131429 -0.362649 0.016556
-0.155689 -0.370633 0.108368
-0.258364 -0.272746 0.180519
-0.242178 -0.300196 0.142446
-0.090786 -0.422601 0.599930
-0.188037 -0.359417 0.646806
-0.006196 -0.475220 0.348783
-0.100825 -0.466961 0.393916
-0.071372 -0.470793 0.425932
-0.366721 -0.129791 -0.398353
-0.325500 -0.029642 -0.307179
-0.237380 0.083682 -0.353334
-0.103200 -0.062008 -0.513364
-0.196806 -0.173141 -0.272277
-0.283340 -0.003817 -0.297845
-0.260023 0.120806 -0.375923
-0.025760 0.226688 -0.259353
-0.032203 0.241261 -0.180024
0.055331 -0.264842 0.930685
0.001350 -0.082667 0.952569
0.030696 -0.072605 0.919921
0.232414 0.119962 0.672200
0.251987 0.110627 0.662515
0.014724 0.123183 0.594212
0.070967 0.177214 0.546981
0.131198 0.179582 0.103287
0.233399 0.228219 -0.098932
0.306835 0.163822 0.074303
0.224331 0.205094 0.112870
0.242893 0.220218 0.149340
0.282077 -0.163540 0.656775
0.273705 -0.114009 0.746712
0.234931 -0.212307 0.802740
0.306194 -0.229337 0.723521
0.245034 -0.223677 0.773958
0.215846 -0.028665 0.000799
0.253473 0.059666 -0.028411
0.287009 -0.045394 0.185300
0.295094 -0.072238 0.157903
0.212936 -0.260010 0.003529
0.215693 -0.255524 0.022841
0.181560 -0.348109 0.415683
0.123597 -0.390993 0.020117
0.050569 -0.407835 0.034346
0.112816 -0.304134 -0.057150
0.474727 -0.174392 -0.419440
0.291363 -0.028406 -0.361749
0.219308 0.128354 -0.514734
0.220037 0.133179 -0.472241
0.393486 -0.181519 -0.434379
0.027430 -0.174516 -0.365062
0.057881 -0.149702 -0.434364
0.309359 0.012129 -0.303225
0.078540 0.291361 -0.298836
0.204181 0.217342 -0.188458
0.001059 0.189609 -0.058882
0.016662 0.211217 -0.138336
0.055176 0.207825 -0.183998
0.088814 0.254153 -0.252501
0.158377 -0.179249 -0.108331
0.289078 -0.184118 -0.414972
0.372750 -0.179167 -0.431165
0.029753 0.242484 -0.503931
0.072655 0.107379 -0.506636
0.043725 -0.447848 0.625014
0.275084 -0.287248 0.529262
0.173078 -0.377392 0.395131
0.284188 -0.151599 0.577034
0.336044 -0.192239 0.617879
0.269018 -0.220580 0.504798
0.195566 -0.159978 -0.048049
0.220724 -0.114885 0.423796
0.207758 -0.000847 0.361037
0.197165 -0.020393 0.378360
0.305873 0.101997 0.567039
0.241555 0.019430 0.209351
0.207084 0.108026 0.164705
0.121561 -0.329624 0.853865
0.095348 -0.362962 0.841475
0.074794 -0.406790 0.769771
-0.214660 -0.131932 -0.016322
-0.205234 -0.015340 -0.064441
-0.038051 -0.328835 -0.247951
-0.247218 -0.016001 -0.307968
-0.056555 0.244641 -0.550821
-0.106600 0.210685 -0.565766
-0.247496 0.099781 -0.433841
-0.057859 0.103188 -0.564357
-0.385201 -0.089928 -0.381278
-0.100945 -0.336839 -0.009510
-0.204140 -0.320442 0.395755
-0.225402 -0.174054 -0.057525
-0.256446 -0.075990 0.265840
-0.273509 0.070563 -0.032187
-0.298050 -0.198518 0.725179
-0.309987 -0.261471 0.657841
-0.304180 -0.221043 0.690996
-0.274906 -0.136157 0.691603
-0.230430 0.160345 0.175398
-0.255468 0.151771 0.117624
-0.311106 0.199081 0.055528
-0.237694 0.232633 -0.043956
-0.192902 0.119349 0.452976
-0.182245 0.147102 0.658358
-0.098158 -0.389309 0.779227
-0.169993 -0.379408 0.782036
-0.086114 -0.383889 0.844704
-0.003072 -0.295416 0.967863
-0.135359 0.184804 -0.045295
-0.136931 0.168470 -0.055511
-0.036663 -0.191888 0.924897
-0.094789 -0.210895 0.972865
-0.057178 -0.220656 0.978831
-0.057193 -0.176013 0.976167
-0.168910 -0.036217 0.860615
-0.157339 -0.040036 0.876876
-0.116008 -0.073108 0.937779
-0.195718 -0.105858 0.921426
-0.189724 -0.172239 0.929540
-0.172596 -0.196119 0.955162
-0.199668 -0.139975 0.870211
-0.141416 -0.110139 0.890381
-0.106427 -0.165902 0.954526
-0.312036 0.198380 0.561610
-0.252602 0.234719 0.590570
-0.283012 0.179798 0.572618
-0.252470 0.141680 0.634889
-0.313779 0.154754 0.386206
-0.101031 0.193791 0.470090
-0.150856 0.241793 0.049064
-0.270692 0.189137 0.043634
-0.307880 0.141814 -0.040116
-0.270154 0.182721 0.039042
-0.220467 0.113503 0.407019
-0.242492 0.143876 0.479821
-0.246710 0.071156 0.000269
-0.294495 0.091666 0.044460
-0.309718 0.083764 0.056736
-0.261122 0.119974 0.590962
-0.299584 0.132304 0.673107
-0.256274 0.111380 0.620479
-0.230138 -0.031365 0.458245
-0.214847 -0.011236 0.447860
-0.231865 -0.029371 0.479421
-0.260850 -0.106084 0.540502
-0.255097 -0.096161 0.467229
-0.261160 -0.046348 0.477067
-0.246413 -0.059550 0.484965
-0.297498 -0.032170 0.111886
-0.313819 -0.113549 0.141589
-0.305979 -0.003908 0.182185
-0.260302 -0.080988 0.183705
-0.274920 -0.143472 0.434065
-0.216627 -0.196279 0.435524
-0.234386 -0.222324 0.459359
-0.277872 -0.159867 0.388812
-0.240269 -0.201049 0.439078
-0.253435 -0.192344 0.515329
-0.077984 -0.428503 0.518767
-0.158215 -0.449051 0.566467
-0.114141 -0.429584 0.526113
-0.197166 -0.371734 0.482601
-0.185728 -0.352379 0.538591
-0.156782 -0.387047 0.459224
-0.154884 -0.389926 0.539903
-0.141319 -0.424110 0.398837
-0.121752 -0.434352 0.439376
-0.002173 -0.411518 0.289910
-0.086582 -0.405738 0.257524
-0.087660 -0.398855 0.239024
-0.052338 -0.397209 0.244729
-0.066395 -0.457836 0.226438
-0.307760 -0.132767 -0.474934
-0.337884 -0.128431 -0.440412
-0.304911 -0.079387 -0.475857
-0.117111 0.097198 -0.476194
-0.199284 -0.006500 -0.482573
-0.139676 -0.090960 -0.501896
-0.147675 -0.004711 -0.497375
-0.174785 -0.039301 -0.451813
-0.189615 -0.004909 -0.424810
-0.220198 -0.019321 -0.487950
-0.173536 0.155620 -0.504462
-0.377710 -0.181664 -0.377334
-0.206380 -0.144252 -0.363380
-0.170651 -0.200272 -0.347563
-0.036493 -0.146099 -0.464847
-0.013055 -0.210991 -0.443528
0.014300 -0.175754 -0.427838
-0.079253 -0.246457 -0.382113
-0.059328 -0.141359 -0.423939
-0.332197 -0.050635 -0.284640
-0.358883 -0.062873 -0.290693
-0.288182 -0.028214 -0.319091
-0.126045 0.289435 -0.408911
-0.096912 0.242568 -0.403130
-0.054369 0.294253 -0.377497
-0.215701 0.137799 -0.192782
-0.207516 0.180686 -0.207961
-0.238054 0.090187 -0.248501
-0.210366 0.077529 -0.171178
-0.196587 0.150651 -0.201716
-0.236200 0.078785 -0.137508
-0.224062 0.159499 -0.191952
-0.085126 0.221747 -0.065338
-0.053039 0.237229 0.016503
-0.069316 0.184236 -0.055066
0.022111 0.194916 -0.077654
0.146348 0.180373 -0.043526
0.000532 -0.188887 0.918723
-0.024050 -0.168574 0.962260
0.009213 -0.185098 0.974490
0.089671 -0.230169 0.924628
0.210362 -0.094156 0.847203
0.187988 -0.024531 0.907232
0.145207 -0.048831 0.926800
0.090652 -0.131815 0.911530
0.177623 -0.192035 0.908959
0.259700 0.189813 0.525197
0.289570 0.263858 0.596679
0.318369 0.154100 0.377252
0.133389 0.197298 0.450374
0.124083 0.139509 0.467602
0.153201 0.193877 0.019839
0.094505 0.225026 0.098256
0.171756 0.185610 -0.049330
0.175527 0.156831 -0.083493
0.265508 0.145914 0.023642
0.294278 0.085600 -0.011482
0.253133 0.064888 0.456287
0.228057 0.082130 0.526034
0.291029 0.018098 0.499245
0.260793 -0.116426 0.727729
0.319624 -0.088237 0.693420
0.331494 -0.119317 0.650180
0.308907 0.046118 0.687851
0.312881 0.059953 0.597884
0.320277 -0.003424 0.687789
0.301222 0.020740 0.720711
0.262349 -0.003044 0.111045
0.259274 -0.081549 0.098015
0.302655 -0.043934 0.017582
0.254739 -0.016630 0.073210
0.246815 0.005147 0.030212
0.260130 0.009595 0.111959
0.226116 -0.217229 0.219949
0.230819 -0.168794 0.136370
0.240161 -0.168722 0.198553
0.286222 -0.149934 0.174214
0.215736 -0.245695 0.006808
0.223112 -0.219719 0.006942
0.138520 -0.423775 0.389419
0.121927 -0.381873 0.355354
0.136153 -0.412122 0.439942
0.072527 -0.402062 0.303912
0.142075 -0.450825 0.337761
0.113233 -0.398889 0.354899
0.080740 -0.442948 0.182150
0.053619 -0.397929 0.163391
0.054072 -0.441536 0.151951
-0.002590 -0.437766 0.027073
-0.012475 -0.396078 0.134036
0.062399 -0.412498 0.059087
0.361273 -0.075855 -0.449861
0.215982 -0.071871 -0.377398
0.280855 -0.050277 -0.361685
0.132625 -0.016907 -0.471941
0.092031 0.033132 -0.478565
0.043519 -0.037488 -0.516394
0.031242 -0.007217 -0.542852
0.066426 0.060062 -0.546264
0.099341 0.003845 -0.522709
0.261601 0.105832 -0.456555
0.059679 0.258786 -0.582130
0.076013 0.214389 -0.561697
0.250304 -0.114532 -0.509052
0.338643 -0.168060 -0.511225
0.196401 -0.193375 -0.442520
0.193225 -0.153325 -0.352365
0.157316 -0.201508 -0.359094
0.123676 -0.106124 -0.473481
0.094283 -0.135515 -0.419548
0.093752 0.271048 -0.424775
-0.001769 0.244783 -0.441052
0.216782 0.034219 -0.241235
0.226807 0.046191 -0.233456
0.240931 0.087726 -0.272887
0.283700 0.090758 -0.214899
0.197109 -0.011392 -0.161944
0.259387 0.004911 -0.215156
0.196572 0.030703 -0.139416
0.015422 0.223983 -0.155414
0.114100 0.171822 -0.087893
0.091018 0.201369 -0.150535
0.119189 0.184292 -0.120486
0.131225 -0.256307 -0.070380
0.195562 -0.207969 -0.115021
0.195453 -0.225767 -0.037588
0.141408 -0.216601 -0.093722
0.216738 -0.000924 -0.073673
0.226930 -0.038128 -0.080629
0.176580 -0.088270 -0.081272
0.228485 -0.039780 -0.154180
0.036477 -0.283843 -0.183596
0.084445 -0.222490 -0.292319
0.021859 -0.257675 -0.365707
0.079952 -0.303618 -0.271935
0.249276 0.245758 -0.392141
0.308528 -0.090257 -0.283336
0.263389 -0.046008 -0.319884
0.374730 -0.081437 -0.314085
0.422827 -0.106954 -0.351627
0.412578 -0.110543 -0.323742
0.428318 -0.108922 -0.447847
0.063766 0.239007 -0.521171
0.129550 -0.085803 -0.458299
0.183408 -0.067311 -0.453533
0.172354 0.010577 -0.421903
0.123018 0.110512 -0.521502
0.253971 -0.057068 -0.374615
0.292869 -0.087331 -0.483724
0.323909 -0.091331 -0.467007
0.282025 -0.119184 -0.464976
0.260891 -0.074929 -0.491378
0.032719 -0.404994 0.301800
0.055408 -0.461529 0.256373
-0.004667 -0.406177 0.239047
0.054110 -0.453662 0.275919
0.044209 -0.452496 0.180724
0.151084 -0.378746 0.518404
0.163371 -0.459268 0.491319
0.066101 -0.460656 0.439004
0.150420 -0.409103 0.459884
0.170884 -0.398535 0.497685
0.259703 -0.219980 -0.033307
0.261367 -0.228444 0.385402
0.224092 -0.207471 0.454897
0.256165 -0.222608 0.409846
0.277509 -0.139195 0.387940
0.252402 -0.158414 0.500155
0.305459 -0.192335 0.503169
0.304064 -0.171672 0.462801
0.253888 -0.248828 0.473012
0.265178 -0.057622 0.126678
0.313210 -0.096481 0.154547
0.313628 -0.025863 0.107453
0.237166 -0.134210 0.427561
0.232764 -0.157708 0.423724
0.237196 -0.062734 0.498024
0.283088 -0.071199 0.457155
0.278235 -0.023208 0.532102
0.308384 0.155621 0.644449
0.257261 0.127729 0.656786
0.277067 0.054440 -0.010380
0.259583 0.137840 0.097218
0.305501 0.099256 0.139913
0.213469 0.106349 0.421755
0.318245 0.132084 0.414190
0.162547 0.205847 -0.088030
0.162721 0.183676 -0.094785
0.046868 0.173013 0.334485
0.024507 0.199615 0.436023
-0.025491 0.206058 0.419046
0.037903 0.156848 0.384118
0.041655 0.190296 0.462401
0.116405 0.131429 0.381751
0.053179 0.138148 0.377096
0.131235 0.183680 0.673060
0.159710 0.207951 0.663358
0.037907 0.007877 0.833374
0.020468 0.070040 0.755837
0.014263 0.066261 0.829445
0.018301 -0.013372 0.824104
0.080766 -0.009732 0.863090
0.102886 0.027496 0.827301
0.050837 -0.014108 0.868098
0.128657 0.056218 0.846366
0.079093 0.075471 0.821632
0.152288 0.075388 0.781766
0.034395 -0.388546 0.811666
0.036593 -0.428255 0.791512
0.087088 -0.445205 0.808734
0.063542 -0.430201 0.806051
0.018039 -0.417532 0.799883
-0.157437 0.054946 -0.018840
-0.086082 0.191544 -0.206254
-0.038490 0.198845 -0.128493
-0.114045 0.178631 -0.094696
-0.227102 0.052543 -0.148349
-0.212723 0.111556 -0.166079
-0.232187 -0.009775 -0.282966
-0.221914 0.036873 -0.239326
-0.234341 0.083829 -0.251066
-0.097349 0.239029 -0.459466
-0.121510 0.237081 -0.397638
-0.039853 0.296094 -0.354500
-0.042513 0.245088 -0.445029
-0.034201 0.297330 -0.435605
-0.185706 -0.175583 -0.256440
-0.089527 -0.221745 -0.358940
-0.119075 -0.201851 -0.372750
-0.292031 -0.134439 -0.349845
-0.426773 -0.128888 -0.457442
-0.404981 -0.130553 -0.446549
-0.020605 0.283889 -0.527465
-0.035913 0.177525 -0.587363
-0.186274 0.197844 -0.485990
-0.265759 0.194063 -0.479968
-0.014762 -0.053510 -0.490025
-0.042190 -0.039207 -0.535486
-0.040233 -0.049099 -0.540014
-0.036812 0.083466 -0.548687
-0.217220 -0.055318 -0.440638
-0.249133 -0.079966 -0.437056
-0.299062 -0.108609 -0.426345
-0.436394 -0.143810 -0.465795
-0.307813 -0.113405 -0.420080
-0.060190 -0.392076 0.181183
-0.065141 -0.425762 0.144806
-0.109915 -0.366178 0.118118
-0.150406 -0.415170 0.213823
-0.113855 -0.331919 0.070569
-0.095046 -0.383118 0.074860
-0.086253 -0.355207 0.042699
-0.135279 -0.362977 0.200726
-0.224298 -0.340716 0.264770
-0.201375 -0.325305 0.280962
-0.167879 -0.303139 0.292684
-0.256598 -0.282569 0.285519
-0.191762 -0.319718 0.352671
-0.187699 -0.288497 0.274460
-0.253118 -0.234898 0.249355
-0.212974 -0.255964 0.326932
-0.257105 -0.276363 0.399709
-0.227460 -0.175128 0.417357
-0.238800 0.002249 -0.021078
-0.243723 -0.101091 0.043944
-0.295401 -0.049146 0.065037
-0.258687 -0.047158 0.033659
-0.311515 0.044236 0.091025
-0.312986 0.030532 0.073288
-0.295224 -0.011270 0.067180
-0.332866 -0.095681 0.644452
-0.273050 -0.058229 0.704484
-0.307689 -0.098903 0.681075
-0.263427 0.000570 0.673376
-0.254482 0.037448 0.665057
-0.314730 0.139286 0.594821
-0.260095 0.121198 0.621423
-0.202062 0.115096 0.001820
-0.272856 0.085468 0.023731
-0.178482 0.102729 -0.071384
-0.028569 0.222418 0.156297
-0.000160 0.227065 0.125674
-0.069388 0.218587 0.181141
-0.049920 0.163365 0.162777
-0.068813 0.204861 0.140609
-0.199073 0.190717 0.413109
-0.282298 0.202647 0.412328
-0.158358 0.195112 0.653330
-0.258435 -0.023743 0.849019
-0.252242 -0.102998 0.843595
-0.220623 0.004077 0.811212
-0.258857 0.024135 0.752051
-0.242994 -0.002133 0.708311
-0.287313 0.018421 0.746995
-0.294493 -0.019493 0.784063
0.014822 -0.049853 0.890056
-0.022039 -0.055621 0.857797
-0.016316 -0.030746 0.875818
-0.105024 -0.042477 0.865407
-0.137903 -0.009914 0.859754
-0.153405 -0.176469 0.962800
-0.002972 -0.296165 0.928273
-0.019412 -0.273338 0.925647
-0.165419 0.224097 -0.518026
-0.201440 0.194425 -0.453403
-0.022257 -0.336163 0.881507
-0.111091 -0.147200 0.940228
-0.028593 -0.081768 0.951909
-0.044068 -0.093014 0.950612
-0.240044 0.179969 0.620143
-0.213685 0.184771 0.639305
-0.238595 0.160894 0.672675
-0.206309 0.175837 0.680099
-0.003987 0.050754 0.724200
-0.006345 0.131602 0.725657
-0.039785 0.107355 0.769891
-0.016541 0.114357 0.666716
-0.066745 0.133811 0.586966
-0.122774 0.121050 0.612917
-0.053468 0.155742 0.639568
-0.080570 0.117708 0.656122
-0.128130 0.158867 0.642736
-0.031772 0.163068 0.394896
-0.055154 0.154779 0.394814
-0.085403 0.137354 0.399306
-0.084293 0.148979 0.476240
-0.167663 0.230595 -0.048364
-0.104427 0.174354 -0.096667
-0.314828 0.181231 0.025706
-0.251836 0.157451 0.011499
-0.276383 0.090108 0.053694
-0.260156 0.152621 0.061534
-0.222049 0.033920 0.471548
-0.267161 0.042523 0.515947
-0.137139 -0.436018 0.723942
-0.176118 -0.364553 0.786614
-0.203433 -0.420398 0.654924
-0.129282 -0.382426 0.676306
-0.185567 -0.348863 0.716314
-0.090766 -0.460241 0.713833
-0.159971 -0.430793 0.758612
-0.234004 0.051043 -0.055633
-0.228609 -0.179834 0.123464
-0.251117 -0.192092 0.224033
-0.284194 -0.078993 0.245891
-0.279764 -0.103314 0.272116
-0.279866 -0.185070 0.252348
-0.281455 -0.175298 0.073109
-0.267897 -0.235755 -0.001270
-0.083452 -0.413057 0.424744
-0.107495 -0.423884 0.358635
-0.132778 -0.423946 0.381524
-0.172377 -0.373812 0.323541
-0.143274 -0.443946 0.365860
-0.116212 -0.443474 0.284575
-0.066747 -0.452539 0.174327
-0.044351 -0.399521 0.118097
-0.044366 -0.392356 0.215573
-0.029894 -0.438436 0.084917
-0.001879 -0.393017 0.118076
-0.041315 -0.387626 0.034608
-0.328853 -0.073212 -0.423027
-0.291689 -0.058104 -0.395689
-0.254631 -0.057984 -0.414643
-0.238775 -0.060825 -0.350845
-0.143744 0.033867 -0.479867
-0.146862 0.002718 -0.478457
-0.078458 0.008201 -0.500876
-0.200380 0.092682 -0.485530
-0.246078 -0.173488 -0.448339
-0.290589 -0.107014 -0.520321
-0.356547 -0.163924 -0.514589
-0.183054 -0.165060 -0.389739
-0.125885 -0.161859 -0.358562
-0.242615 -0.190316 -0.345419
-0.163252 -0.187289 -0.197154
-0.215983 -0.109380 -0.239651
-0.191567 -0.080335 -0.215812
-0.258947 -0.040241 -0.178465
-0.258203 -0.027415 -0.249235
-0.259425 -0.055081 -0.273925
-0.182536 0.225621 -0.448381
-0.163487 0.232269 -0.337343
-0.186256 0.224448 -0.387237
-0.106262 0.281659 -0.428461
-0.204640 0.214692 -0.298076
-0.212421 0.222994 -0.285294
-0.246864 0.054215 -0.139890
-0.230897 0.006956 -0.124765
0.011488 -0.359187 -0.132158
-0.002464 -0.372628 -0.098270
-0.032225 -0.334240 -0.094634
-0.057105 -0.327890 -0.073998
-0.021204 -0.303475 -0.123258
0.065050 -0.342958 0.916630
0.132340 -0.330165 0.931467
0.067017 -0.054862 0.907345
0.087405 -0.080951 0.926730
0.036556 -0.073671 0.869875
-0.020462 -0.097378 0.913834
0.262929 -0.007192 0.745242
0.246715 -0.033687 0.766204
0.243024 0.001568 0.854445
0.294847 -0.081076 0.756933
0.258737 -0.041403 0.735454
0.249988 -0.023085 0.759545
0.284066 -0.004362 0.742094
-0.027609 0.103273 0.674287
0.054105 0.090361 0.651613
0.014985 0.100596 0.677663
0.031912 0.123420 0.734401
0.121326 0.118199 0.757277
0.094215 0.073766 0.740640
0.063800 0.104053 0.707716
0.063073 0.137702 0.643718
0.074371 0.164412 0.659452
0.254692 0.239455 0.027642
0.288866 0.183349 0.113145
0.106859 0.162366 0.380892
0.170704 0.084828 0.230485
0.227670 0.070593 0.200665
0.154383 0.084479 0.310742
0.214131 0.051808 0.362671
0.230976 0.085311 0.322318
0.192182 0.064310 0.281252
0.238291 0.029503 0.265219
0.099437 -0.427405 0.781095
0.028125 -0.432371 0.733411
0.007685 -0.446626 0.785621
0.030433 -0.442903 0.734514
0.019199 -0.472357 0.716518
0.279379 -0.083913 0.244104
0.267377 0.018899 0.207191
0.220915 -0.009856 0.282189
0.210297 0.005598 0.347154
0.204865 0.018145 0.354488
0.213929 -0.010176 0.284202
0.226256 -0.049651 0.286206
0.291397 -0.164919 0.087064
0.250213 -0.162039 0.094859
0.226498 -0.158619 -0.004109
0.290085 -0.110258 -0.010658
0.298076 -0.086247 0.049206
0.270726 -0.113775 0.040230
0.146145 -0.252475 -0.068944
0.226949 -0.221179 -0.045500
0.225232 -0.249362 -0.020064
0.220660 -0.307410 0.373578
0.157971 -0.423390 0.298791
0.119918 -0.390382 0.300520
0.079571 -0.432992 0.255703
0.116837 -0.406993 0.241237
0.060661 -0.375347 0.059204
0.061480 -0.416184 0.023705
-0.001599 -0.362806 -0.002798
0.010143 -0.349801 -0.028092
0.285245 -0.090962 -0.400526
0.118105 0.176203 -0.618221
0.070343 0.167135 -0.587725
0.061881 0.148115 -0.561450
0.216450 0.027882 -0.433151
0.113333 0.098645 -0.481837
0.139770 0.196063 -0.570397
0.068661 -0.108771 -0.526468
0.092016 -0.041413 -0.473183
0.120176 0.005814 -0.523615
0.285073 -0.159611 -0.308399
0.314609 -0.172093 -0.332240
0.294840 -0.186985 -0.336777
0.272706 -0.062359 -0.309052
0.289273 -0.029868 -0.302692
0.164580 -0.106202 -0.189872
0.294556 0.079767 -0.325977
0.296416 0.061498 -0.322883
0.256416 0.077406 -0.359461
0.300518 0.071182 -0.336624
0.221798 0.208590 -0.405944
0.234222 0.195290 -0.461197
0.178008 0.162754 -0.253955
0.167349 0.187349 -0.266463
0.148788 0.266227 -0.261131
0.184147 0.202337 -0.276175
0.174143 0.190600 -0.241403
0.165052 0.125978 -0.156576
0.177469 0.132462 -0.189617
0.108073 -0.346652 -0.110309
0.077769 -0.292621 -0.079008
0.047507 -0.331891 -0.112662
0.045734 -0.329780 -0.151727
0.142535 -0.224958 -0.134228
0.169838 -0.240290 -0.094431
0.147023 -0.280906 -0.113878
0.114831 -0.313451 -0.117344
0.203755 0.048198 -0.099578
0.228444 0.053269 -0.146710
0.176673 -0.019847 -0.108791
0.221964 0.083995 -0.123841
0.075244 -0.225838 -0.211081
0.072491 -0.294377 -0.180158
0.102165 -0.234581 -0.252534
0.121150 -0.210594 -0.248851
0.086238 -0.187284 -0.325267
0.153347 -0.203179 -0.254530
0.239204 0.245239 -0.287891
0.135448 0.232956 -0.359690
0.106931 0.280228 -0.276705
0.301584 0.088523 -0.345154
0.239946 0.191881 -0.365412
0.299681 0.168255 -0.378859
0.113370 -0.179343 -0.330129
0.091527 -0.156345 -0.407984
0.106726 -0.167074 -0.338096
0.104973 -0.217625 -0.410259
0.068823 -0.131698 -0.456495
0.452998 -0.162427 -0.379071
0.008853 -0.116992 -0.479836
0.037283 -0.091667 -0.483467
0.001043 0.248689 -0.534360
0.239035 0.060305 -0.346072
0.282316 0.052419 -0.385146
0.049017 0.077468 -0.535043
0.028668 0.159546 -0.568771
0.025608 0.168010 -0.615092
0.053533 -0.425727 0.392037
0.075137 -0.477098 0.363518
-0.017464 -0.466971 0.292433
0.029901 -0.472425 0.307722
0.012714 -0.417842 0.299627
0.045124 -0.459152 0.311170
0.179926 -0.381998 0.668247
0.199997 -0.380476 0.646429
0.222434 -0.413478 0.584210
0.146168 -0.427078 0.622842
0.136266 -0.419757 0.626343
0.128161 -0.408897 0.607881
0.107193 -0.465783 0.582228
0.134420 -0.449704 0.523750
0.069690 -0.433627 0.600860
0.142099 -0.437371 0.530912
0.210057 -0.331874 0.170008
0.173394 -0.341402 0.186865
0.190360 -0.368658 0.125220
0.193182 -0.305849 0.071233
0.209248 -0.335595 0.129508
0.224343 -0.254288 0.071091
0.221984 -0.265471 0.039476
0.223042 -0.318621 0.123932
0.211874 -0.245779 0.105523
0.250736 -0.240486 0.131087
0.226426 -0.230688 0.039490
0.257937 -0.251986 0.097059
0.239729 -0.157829 0.163225
0.258792 -0.206336 0.070104
0.312801 -0.076841 0.086778
0.258593 -0.112832 0.098741
0.248805 -0.094600 0.182449
0.301385 -0.119002 0.110975
0.152696 -0.334221 0.779103
0.195075 -0.410848 0.741028
0.154254 -0.421580 0.746435
0.109155 -0.403726 0.643665
0.165661 -0.445156 0.720635
0.155908 -0.393484 0.751925
0.212413 -0.404522 0.666260
0.138147 -0.432944 0.656561
0.180014 0.020385 0.429455
0.221610 0.041260 0.353251
0.207365 0.060169 0.452524
0.086268 0.179223 0.229190
0.114282 0.175074 0.248135
0.137357 0.153144 0.352813
0.096009 0.163613 0.277297
0.196141 0.082789 0.338648
0.175994 0.083278 0.375785
0.130052 0.153350 0.258139
0.097532 0.146775 -0.037583
0.165588 0.147304 -0.032165
0.025614 0.223512 0.247266
0.053682 0.215843 0.261233
0.007006 0.218566 0.291948
0.011276 0.166277 0.312478
0.116732 0.194867 0.277604
0.069317 0.174125 0.291195
0.047249 0.208777 0.280706
0.067012 0.153441 0.206203
0.218092 0.152322 0.351680
0.270741 0.136211 0.717779
0.263780 0.071878 0.721546
0.166449 0.020546 0.751982
0.187486 0.030107 0.803226
0.176400 -0.003508 0.889043
0.165430 -0.015104 0.841726
0.216388 -0.033979 0.866733
0.001701 -0.352613 0.867944
0.301475 -0.253554 0.645145
0.237376 -0.268208 0.669593
0.269483 -0.246682 0.707914
0.175800 -0.313065 0.753404
0.242928 -0.313439 0.757306
0.220676 -0.342834 0.772476
0.251608 -0.361688 0.710864
-0.102648 -0.305018 -0.150793
-0.049713 -0.340734 -0.164938
-0.059162 -0.370792 -0.096256
-0.070576 -0.351764 -0.065540
-0.150684 -0.263593 -0.082820
-0.107062 -0.275803 -0.092059
-0.199713 0.184071 -0.137946
-0.155245 0.175018 -0.169487
-0.183629 0.159978 -0.152131
-0.185848 0.212598 -0.326843
-0.212070 0.233392 -0.260943
-0.167369 0.240783 -0.186079
-0.107594 0.259417 -0.261907
-0.146332 0.249219 -0.280450
-0.238492 0.195477 -0.441328
-0.174723 0.254397 -0.422248
-0.294631 0.023797 -0.365435
-0.299303 0.049206 -0.338732
-0.299495 0.122207 -0.287841
-0.206199 -0.152384 -0.268367
-0.285582 -0.072273 -0.336867
-0.292008 -0.067491 -0.312191
-0.286636 -0.167940 -0.361353
-0.341206 -0.163065 -0.344273
-0.365536 -0.168518 -0.395413
-0.099187 -0.029754 -0.475657
-0.155255 -0.101813 -0.500181
-0.137944 -0.010402 -0.517282
-0.092849 0.217782 -0.530526
-0.142073 0.163748 -0.495452
-0.257007 0.025944 -0.401926
-0.288998 0.056214 -0.337995
-0.109981 0.174203 -0.583270
-0.094948 0.204978 -0.602735
-0.031959 0.191245 -0.635661
-0.333675 -0.103272 -0.397856
0.001409 -0.432215 0.002823
-0.091608 -0.346631 -0.011774
-0.050890 -0.377875 -0.024364
-0.100342 -0.431826 0.266190
-0.125234 -0.391297 0.299378
-0.121816 -0.373812 0.250645
-0.138649 -0.373120 0.241505
-0.201067 -0.387322 0.300727
-0.167325 -0.369840 0.332575
-0.230600 -0.331661 0.351368
-0.218685 -0.370016 0.352346
-0.176181 -0.358357 -0.022351
-0.227543 -0.252439 0.047714
-0.265143 -0.192958 -0.008667
-0.249795 -0.141176 0.067305
-0.293986 -0.101439 0.059852
-0.267736 -0.112102 0.044186
-0.268675 -0.131262 0.015820
-0.266394 -0.010976 0.241399
-0.265310 -0.006772 0.277009
-0.221493 -0.061444 0.273365
-0.271957 -0.098011 0.322513
-0.272377 -0.039981 0.344624
-0.269262 -0.054600 0.328399
-0.259970 -0.037441 0.356001
0.013729 -0.480203 0.778560
-0.087644 -0.441933 0.797940
-0.043308 -0.426554 0.720638
-0.112849 -0.424008 0.725747
-0.061143 -0.458753 0.669289
-0.098724 -0.474908 0.728081
-0.013557 -0.459708 0.680865
-0.169959 0.119940 0.308780
-0.174248 0.084175 0.222185
-0.204079 0.018110 0.262446
-0.232230 0.032889 0.291491
-0.193161 0.014950 0.336975
-0.138429 0.127737 0.445298
-0.092879 0.170142 0.410663
-0.189342 0.134879 0.388967
-0.168390 0.124848 0.364688
-0.176888 0.190397 -0.034389
-0.110484 0.202098 -0.082503
-0.019847 0.219863 0.323956
-0.048877 0.173193 0.309551
-0.058221 0.168002 0.285473
0.021491 0.196809 0.248338
-0.072505 0.140076 0.296975
-0.071760 0.151415 0.243502
-0.105360 0.159498 0.296316
-0.224402 0.146586 0.387947
-0.232143 0.072543 0.720212
-0.261290 0.027059 0.736592
-0.129751 0.073749 0.778821
-0.143877 0.059232 0.831420
-0.220697 -0.073292 0.888807
-0.229436 -0.043495 0.808967
-0.193420 -0.055518 0.844004
-0.173781 -0.033712 0.831936
-0.008955 -0.386737 0.851907
-0.235610 -0.220851 0.760542
-0.241743 -0.247899 0.819038
-0.288574 -0.260943 0.685901
-0.210749 -0.371750 0.639506
-0.188451 -0.339144 0.659548
-0.210511 -0.340241 0.677628
-0.212245 -0.295174 0.705408
-0.241807 -0.360539 0.724573
-0.043790 -0.358669 0.958998
-0.121391 0.175191 0.567111
-0.169762 0.207734 0.538244
-0.111675 -0.228354 0.958402
-0.117124 -0.264062 0.875290
-0.131936 -0.333438 0.847846
-0.135497 -0.235729 0.874993
-0.203486 -0.241165 0.882752
-0.201087 -0.292040 0.791963
-0.191939 -0.204167 0.868172
-0.139364 0.098824 0.682748
-0.215982 0.090789 0.744397
-0.184713 0.076677 0.748965
-0.172048 0.063897 0.765557
-0.173478 0.045733 0.786937
-0.126424 0.241830 0.548590
-0.121106 0.221039 0.516084
-0.088212 0.206691 0.453829
-0.107069 0.198451 0.475102
-0.173266 0.165600 0.421563
-0.048872 0.232848 0.032824
0.007085 0.187590 -0.005385
-0.063171 0.221829 0.010172
-0.093900 0.227255 0.012200
-0.035378 0.179268 0.027102
-0.064665 0.221334 0.074698
-0.276455 0.135155 0.436353
-0.288482 0.118072 0.449898
-0.263396 0.086346 0.558394
-0.244108 0.097477 0.711278
-0.299899 0.014343 0.618476
-0.226211 0.040696 0.172740
-0.272094 -0.001142 0.205942
-0.293096 0.027968 0.154002
-0.265349 -0.195112 0.206471
-0.215560 -0.254690 0.303863
-0.255927 -0.230365 0.238711
-0.214236 -0.252577 0.283784
-0.278232 -0.164088 0.371940
-0.279524 -0.094102 0.348519
-0.277514 -0.128463 0.292894
-0.229937 -0.080087 0.253221
-0.278695 -0.162972 0.319551
-0.220541 -0.255520 0.127315
-0.252005 -0.297121 0.565595
-0.236973 -0.313321 0.497402
-0.269765 -0.355025 0.532487
-0.252035 -0.336618 0.603531
-0.254425 -0.336716 0.614015
-0.276676 -0.322845 0.618701
-0.282859 -0.337047 0.664742
-0.302281 -0.312749 0.619746
-0.030371 -0.454825 0.527317
-0.026654 -0.503499 0.535436
-0.020946 -0.497568 0.477276
-0.105651 -0.477446 0.421396
-0.032175 -0.466433 0.408802
-0.091165 -0.487723 0.510615
-0.018098 -0.443542 0.445031
-0.333591 -0.122080 -0.389295
-0.218726 -0.064537 -0.407289
-0.275107 -0.060800 -0.378569
-0.060314 0.062132 -0.485479
-0.108429 -0.040090 -0.540668
-0.283186 0.150050 -0.405820
-0.102105 0.230319 -0.529430
-0.230512 -0.091980 -0.466869
-0.209708 -0.100318 -0.500909
-0.197570 -0.141847 -0.429699
-0.143335 -0.166190 -0.424515
-0.219182 -0.181950 -0.456270
-0.329009 -0.096197 -0.310736
-0.173560 -0.205958 -0.301292
-0.120752 -0.217154 -0.285949
-0.141442 -0.148319 -0.249495
-0.197479 -0.105098 -0.254948
-0.166118 -0.177670 -0.297676
-0.132912 0.261179 -0.428961
-0.149354 0.277604 -0.448337
-0.091675 0.232504 -0.323164
-0.009197 0.236587 -0.214569
-0.063617 0.284300 -0.254697
-0.235734 -0.032834 -0.182479
-0.219232 -0.121924 -0.125727
-0.210406 -0.088033 -0.169374
-0.166594 0.106734 -0.105324
-0.125023 0.183249 -0.128422
-0.099934 0.220192 -0.175751
-0.143256 0.143993 -0.158065
0.085582 0.148371 0.569576
0.133617 0.210130 0.630718
0.102625 0.216958 0.550812
0.195992 0.250792 0.605386
0.106510 -0.257276 0.937881
0.092870 -0.234871 0.910067
0.181160 -0.217113 0.884527
0.163106 -0.230933 0.941052
0.168181 -0.242410 0.902357
0.193483 -0.254417 0.883417
0.228984 -0.204851 0.897217
0.140454 -0.262582 0.915520
0.153398 -0.296919 0.880371
0.165311 -0.349687 0.821972
0.217870 -0.281065 0.806325
0.143870 -0.342678 0.870433
0.238575 -0.310108 0.799322
0.253728 0.133366 0.703791
0.170678 0.088123 0.722179
0.166318 0.109463 0.725057
0.204713 0.094490 0.771271
0.232992 0.086334 0.728938
0.127686 0.153698 0.578022
0.102543 0.194042 0.449006
0.151377 0.221685 0.424756
0.058201 0.183485 0.027685
0.040381 0.230972 0.087380
0.053607 0.171037 0.058514
0.076978 0.225566 0.018989
0.053964 0.214515 0.004832
0.062358 0.204199 -0.037684
0.172287 0.076220 -0.065424
0.225642 0.133193 -0.011321
0.226407 0.070912 0.016936
0.315139 0.100108 0.609902
0.322318 0.175696 0.529204
0.319510 0.158661 0.557935
0.316094 -0.066335 0.501661
0.277051 -0.134654 0.527178
0.261720 -0.037582 0.538701
0.302404 -0.042049 0.509084
0.301176 -0.028927 0.504783
0.272385 -0.041718 0.606854
0.260851 0.047514 0.621723
0.273144 0.009724 0.617077
0.332545 -0.094089 0.636541
0.319143 -0.080505 0.605362
0.325438 -0.069641 0.572611
0.221117 -0.162148 -0.048382
0.206200 -0.274681 0.351743
0.222221 -0.217135 0.407682
0.257774 -0.277583 0.319360
0.227469 -0.149923 0.396626
0.279436 -0.140842 0.366298
0.225444 -0.128451 0.395487
0.168916 -0.347284 0.291986
0.211135 -0.307768 0.303000
0.190443 -0.391933 0.242440
0.243491 -0.294275 0.239626
0.256584 -0.222526 0.251328
0.231363 -0.323613 0.245522
0.234573 -0.247416 0.255378
0.170058 -0.399333 0.169222
0.094716 -0.419709 0.163614
0.123694 -0.376013 0.167848
0.100506 -0.360242 0.105251
0.110910 -0.342412 0.050728
0.272544 -0.123828 -0.465424
0.255218 -0.080183 -0.405896
0.220486 -0.123900 -0.489654
0.044333 -0.056632 -0.486948
0.084153 0.018358 -0.543973
0.074732 0.010715 -0.492254
0.047245 -0.039413 -0.538680
0.205934 0.204710 -0.464532
0.043965 0.231675 -0.634522
0.400393 -0.177730 -0.473265
0.391591 -0.176004 -0.453878
0.282745 -0.172142 -0.293827
0.114546 -0.178388 -0.273107
0.174987 -0.229410 -0.232289
0.183828 -0.232142 -0.214146
0.211692 -0.102588 -0.227623
0.216111 -0.072202 -0.262335
0.206357 -0.062226 -0.185886
0.180925 0.255886 -0.375409
0.155047 0.270984 -0.411333
0.206799 0.249131 -0.400088
0.144045 0.253014 -0.397497
0.094080 0.237406 -0.354349
0.233954 0.126661 -0.254406
0.244089 0.165887 -0.333216
0.227065 0.185511 -0.279581
0.201756 0.227645 -0.314729
0.220206 0.190415 -0.240399
0.187016 -0.025672 -0.116089
0.231364 0.087557 -0.126771
-0.014112 -0.346531 -0.046449
0.051225 -0.383303 -0.096649
0.044475 -0.362046 -0.124878
0.014383 -0.295148 -0.186682
0.055993 -0.317021 -0.136813
0.230538 -0.057426 -0.040115
0.141832 0.197265 -0.126112
0.119845 0.172583 -0.111307
0.181389 0.149673 -0.092492
0.190297 -0.001289 -0.191280
0.179999 -0.064645 -0.157030
0.142118 0.226309 -0.246648
0.112442 0.285437 -0.313760
0.026332 0.240893 -0.330648
0.009537 0.233370 -0.230217
0.149235 0.226327 -0.475838
0.230911 -0.148659 -0.246412
0.152073 -0.179763 -0.283805
0.173925 -0.166113 -0.234504
0.175665 -0.158675 -0.300741
0.184132 -0.208600 -0.303629
0.184803 -0.192134 -0.271556
0.405092 -0.118315 -0.332676
0.136044 -0.112330 -0.489171
0.156884 -0.153907 -0.432335
0.265484 -0.123213 -0.487594
0.131310 -0.141900 -0.390393
0.150535 -0.178094 -0.461835
0.056756 0.235230 -0.543603
0.082147 0.283746 -0.446621
0.135554 0.217326 -0.468423
-0.003092 0.257217 -0.555162
-0.015733 0.237454 -0.574104
0.238686 0.110506 -0.443163
0.116968 -0.056777 -0.529052
0.094542 -0.017174 -0.538376
0.105701 0.044548 -0.501141
0.344083 -0.076701 -0.401542
0.072787 -0.447653 0.551440
0.056588 -0.487665 0.486414
0.061500 -0.488202 0.517881
0.022828 -0.454016 0.515839
-0.002039 -0.441028 0.464618
0.035983 -0.493853 0.498477
0.028063 -0.458385 0.453220
0.255614 -0.327065 0.513822
0.196791 -0.389898 0.584320
0.216171 -0.364803 0.528663
0.240591 -0.389681 0.599371
0.283898 -0.329460 0.539179
0.284654 -0.305625 0.546985
0.248250 -0.315978 0.656422
0.243086 -0.274788 0.578857
0.265858 -0.348620 0.609571
0.281249 -0.238400 0.131830
0.243267 -0.204547 0.059735
0.210643 -0.213184 0.307222
0.275734 -0.204869 0.311295
0.216937 -0.187749 0.284979
0.230377 -0.114322 0.220601
0.279185 -0.176760 0.297052
0.280221 -0.112857 0.324357
0.309363 0.035193 0.157513
0.284442 -0.028013 0.221682
0.290405 0.039955 0.194477
0.295370 0.033046 0.663209
0.306118 0.112260 0.530236
0.296307 0.123818 0.493369
0.332952 0.149793 0.474371
0.274201 0.173913 0.514966
0.291179 0.105976 -0.037285
0.203694 0.144192 -0.056593
0.199883 0.179145 -0.027563
0.270678 0.171974 -0.036145
0.267262 0.172226 -0.005687
0.266599 0.173115 -0.045999
0.009471 0.176866 0.073769
0.032835 0.224539 0.131371
0.029762 0.196499 0.159982
0.068118 0.165965 0.177285
0.039510 0.166220 0.166257
0.159961 0.204047 0.375217
0.287586 0.218136 0.442030
0.255646 0.198567 0.661650
0.292520 0.102103 0.639688
0.242681 -0.078335 0.824520
0.209039 -0.063029 0.849984
0.207906 -0.154831 0.827037
0.235256 -0.148425 0.903468
0.274703 -0.178115 0.839604
0.224002 -0.198750 0.799284
0.288168 -0.170944 0.826529
0.063853 -0.349717 0.915520
0.026038 -0.321577 0.949728
0.157234 0.190636 -0.503078
0.160946 0.247975 -0.501521
-0.135169 -0.231999 -0.146702
-0.183691 -0.204821 -0.147522
-0.182001 -0.276902 -0.096142
-0.225303 0.015389 -0.076080
-0.223972 -0.021113 -0.077036
-0.170257 -0.002604 -0.120622
-0.199377 0.042652 -0.085651
-0.217158 0.067708 -0.140902
-0.205606 0.102103 -0.079158
-0.104964 -0.215138 -0.270590
-0.051453 -0.254025 -0.348640
-0.119482 -0.217251 -0.256863
-0.141679 -0.285261 -0.213063
-0.086130 -0.276027 -0.242435
-0.101341 -0.239400 -0.291993
-0.142524 -0.256969 -0.272307
-0.226268 0.201835 -0.402997
-0.178751 0.245430 -0.368232
-0.141664 0.244023 -0.316714
-0.201721 0.217709 -0.348991
-0.152110 0.228459 -0.344823
-0.248599 0.158297 -0.358637
-0.245380 0.164148 -0.330939
-0.240730 0.135769 -0.367852
-0.136959 -0.214620 -0.385410
-0.087484 -0.201003 -0.271260
-0.156308 -0.169873 -0.292359
-0.336147 -0.129749 -0.426170
-0.305024 -0.177475 -0.415734
-0.317531 -0.185248 -0.450793
-0.269360 -0.161903 -0.416249
-0.272020 -0.143629 -0.432406
-0.337532 -0.140600 -0.385008
-0.031804 -0.142262 -0.444577
-0.049241 -0.103308 -0.460176
-0.041896 -0.104296 -0.500998
-0.030631 0.294870 -0.512063
-0.038501 0.285891 -0.481374
-0.043128 0.242638 -0.610761
-0.029341 0.222026 -0.596364
0.017425 0.213567 -0.641272
-0.103445 0.115579 -0.484980
-0.151872 0.166877 -0.468692
-0.203627 -0.042912 -0.447409
-0.208012 0.034337 -0.433093
-0.071496 0.131897 -0.543794
-0.245629 -0.067763 -0.440877
-0.436067 -0.132224 -0.315565
-0.407478 -0.103401 -0.306769
-0.031914 -0.451829 0.676025
-0.054868 -0.439891 0.690188
-0.022511 -0.491743 0.640965
-0.099245 -0.438437 0.623751
-0.102358 -0.490886 0.547632
-0.069080 -0.501545 0.591838
-0.075109 -0.458812 0.638074
-0.001150 -0.454451 0.563221
-0.161631 -0.397781 0.412816
-0.163701 -0.408511 0.473525
-0.244833 -0.340401 0.477288
-0.231091 -0.364589 0.397909
-0.195152 -0.351950 0.506726
-0.232786 -0.267183 0.483883
-0.220395 -0.280930 0.483076
-0.268473 -0.282245 0.513236
-0.209789 -0.299052 0.455970
-0.301250 -0.282863 0.537554
-0.318270 -0.206577 0.577532
-0.284647 -0.286095 0.670277
-0.319376 -0.261739 0.572028
-0.262258 -0.285409 0.603638
-0.337858 -0.113841 0.579698
-0.319497 -0.148910 0.660792
-0.334126 -0.179826 0.608927
-0.273484 -0.165013 0.521231
-0.281431 -0.109576 0.569123
-0.240775 -0.019653 -0.023762
-0.234765 -0.155126 -0.045996
-0.306762 0.009686 0.528911
-0.284767 -0.070018 0.515225
-0.322371 -0.083097 0.537230
-0.311621 -0.109532 0.583399
-0.276932 -0.082613 0.569912
-0.301932 -0.045007 0.598261
-0.270853 -0.053504 0.575022
-0.330023 0.155720 0.481027
-0.323443 0.169838 0.555443
-0.262292 0.064189 0.134975
-0.252284 0.036767 0.160616
-0.235910 0.075707 0.195536
-0.177654 0.141093 0.204101
-0.213324 0.099483 0.214940
-0.272097 0.053054 0.187121
-0.285056 0.078921 0.168041
-0.191366 0.086670 0.418819
-0.186272 0.109617 0.443936
-0.134581 0.129185 -0.029272
-0.135018 0.144263 0.166723
-0.235866 0.214074 0.401015
-0.041220 0.142935 0.548907
-0.021578 0.186876 0.597794
-0.011480 0.196183 0.505430
-0.233146 0.199554 0.568077
-0.235880 0.153691 0.606871
-0.299444 0.119052 0.663493
-0.272854 0.146924 0.668948
0.007389 -0.009606 0.859820
-0.017327 0.053076 0.838805
-0.147302 0.065207 0.822484
-0.129517 0.096348 0.792971
-0.095680 0.033866 0.805841
-0.113112 0.019693 0.827313
-0.126561 0.024933 0.882241
-0.059830 0.041458 0.813021
-0.036590 -0.408081 0.827813
0.002996 -0.445263 0.802506
-0.050217 -0.407464 0.841670
-0.078685 -0.395384 0.817850
-0.075679 -0.331390 0.868510
-0.082030 -0.364470 0.953888
0.014100 -0.293211 0.924546
-0.064061 -0.254385 0.977253
-0.071800 -0.286424 0.968413
-0.185864 -0.162119 0.912895
-0.264891 -0.126909 0.854496
-0.218708 -0.200639 0.830242
-0.248409 -0.163816 0.837647
-0.200992 -0.106070 0.829619
-0.293173 -0.141168 0.806665
-0.267765 -0.187932 0.835084
-0.217033 0.173518 0.604575
0.002335 0.150146 0.519054
-0.088784 0.181261 0.457012
-0.261713 0.234402 0.073894
-0.294463 0.156954 -0.020145
-0.228100 0.181046 -0.071282
-0.099207 0.129306 0.348433
-0.092597 0.170636 0.379255
-0.094706 0.164585 0.263513
-0.092524 0.137427 0.243758
-0.187365 0.135570 0.270475
-0.185184 0.133210 0.314641
-0.212308 0.060416 0.329503
-0.163130 0.054045 0.419027
-0.188748 0.015414 0.330703
-0.179101 0.077849 0.444692
-0.175005 0.091174 0.471032
-0.251911 0.058926 0.508097
-0.311796 0.018499 0.573086
-0.258984 0.103213 0.596746
-0.193600 -0.001572 0.370083
-0.254258 -0.050666 0.381254
-0.249465 -0.014389 0.322860
-0.202744 -0.012259 0.405145
-0.244399 -0.008431 0.412555
-0.222880 -0.057810 0.459597
-0.274846 -0.138075 0.432065
-0.214301 -0.042271 0.443819
-0.204234 0.026390 0.469310
-0.293788 -0.165479 0.114201
-0.248065 -0.147558 0.142289
-0.243620 -0.151311 0.150913
-0.267155 -0.084035 0.134397
-0.301955 -0.113879 0.118761
-0.308887 -0.138067 0.091566
-0.200572 -0.344017 0.045475
-0.218029 -0.302482 0.098875
-0.168784 -0.306498 0.145918
-0.151729 -0.349990 0.080403
-0.177827 -0.266848 0.131599
-0.192006 -0.248007 0.111919
-0.173563 -0.279832 0.170183
-0.166447 -0.343819 0.224008
-0.142539 -0.323610 0.220199
-0.221642 -0.308394 0.229160
-0.262851 -0.262536 0.208464
-0.128758 -0.452202 0.678928
-0.127525 -0.463426 0.595273
-0.177867 -0.398958 0.638328
-0.150331 -0.379752 0.658699
-0.219515 -0.409050 0.625170
-0.179936 -0.409774 0.574847
-0.187825 -0.394009 0.528100
-0.135671 -0.442489 0.558083
-0.160713 -0.375183 0.623610
-0.213179 -0.374411 0.592644
-0.043395 -0.487340 0.438177
-0.070206 -0.431882 0.377773
-0.065765 -0.459804 0.291980
-0.003749 -0.466916 0.339515
-0.386959 -0.104169 -0.385226
-0.239371 0.017050 -0.478012
0.011676 0.130884 -0.589896
-0.030933 0.136786 -0.546575
-0.020614 0.086959 -0.585536
-0.074393 0.157141 -0.605647
-0.268486 0.072590 -0.384309
-0.076088 0.265016 -0.531637
-0.026642 -0.063405 -0.485145
-0.413013 -0.142814 -0.366661
-0.272604 -0.108206 -0.274773
-0.152432 -0.154047 -0.150483
-0.153880 -0.134521 -0.131060
-0.136800 -0.188302 -0.223605
-0.143554 -0.216334 -0.183557
-0.172791 -0.246874 -0.135974
-0.243326 0.030205 -0.314520
-0.292999 0.015132 -0.273364
-0.292923 0.085226 -0.252517
-0.281682 0.194132 -0.442611
-0.267459 0.219304 -0.441563
-0.279290 0.157871 -0.363965
-0.209917 0.180943 -0.363576
-0.082772 0.276061 -0.284083
-0.055561 0.274430 -0.221314
-0.084186 0.211228 -0.236571
-0.046763 0.215362 -0.200071
-0.179460 -0.203635 -0.029351
-0.204415 -0.191128 -0.075898
-0.219667 -0.140745 -0.055790
0.133087 -0.164904 0.948968
0.100356 -0.132588 0.920335
0.043903 -0.153883 0.959711
0.104982 -0.058831 0.940847
0.193236 0.164954 0.637465
0.170749 0.194108 0.633413
0.260105 0.180241 0.623801
0.214948 0.161151 0.672359
0.014230 0.144250 0.489004
0.036416 0.144393 0.448727
0.066083 0.172269 0.547275
0.002013 0.137499 0.568287
0.099024 0.134923 0.620904
0.054043 0.150588 0.539908
0.072327 0.190739 0.447412
0.109782 0.190908 0.475727
0.220480 0.166847 0.408652
0.081712 0.196601 0.178127
0.136520 0.145196 0.189901
0.170475 0.134064 0.147808
0.231596 0.131988 -0.081112
0.241217 0.151898 0.080310
0.226929 0.166134 0.185887
0.252015 0.136398 0.116266
0.203371 0.090780 0.486448
0.313675 -0.147934 0.726841
0.253850 -0.133422 0.792086
0.311624 -0.182782 0.779573
0.250555 -0.201498 0.801843
0.243600 -0.181574 0.801333
0.262792 -0.259682 0.692653
0.265251 -0.274592 0.638169
0.294941 -0.238216 0.684504
0.324981 -0.200953 0.699361
0.280993 -0.171970 0.629951
0.312030 -0.168656 0.714041
0.340814 -0.102927 0.649768
0.190926 0.032955 -0.039795
0.256718 -0.039357 -0.048140
0.179239 0.086373 -0.056696
0.270457 0.044683 0.003823
0.274656 0.034316 -0.000692
0.223384 -0.045690 0.201398
0.281143 -0.039882 0.254783
0.235555 -0.068594 0.193049
0.124252 -0.363196 -0.008908
0.150233 -0.287957 0.041209
0.182002 -0.324010 -0.009595
0.159630 -0.392853 0.426401
0.161898 -0.327002 0.397477
0.154432 -0.384558 0.367902
0.105357 -0.383072 -0.074546
0.081878 -0.328023 -0.013904
0.150089 -0.389941 0.065842
0.152299 -0.352401 -0.029067
0.056331 -0.414705 0.012289
0.398975 -0.097037 -0.434455
0.291425 -0.037127 -0.342769
0.304456 -0.008967 -0.301845
0.322137 -0.057314 -0.376935
0.211694 0.000969 -0.498670
0.041483 0.115774 -0.518424
0.024165 0.043111 -0.539931
0.206211 -0.101024 -0.433486
0.130955 0.079327 -0.457475
0.102664 0.214757 -0.514881
0.131086 0.254037 -0.547178
0.226006 -0.197509 -0.352074
0.202149 -0.196337 -0.315260
-0.005211 -0.250273 -0.360687
0.047634 -0.213258 -0.417918
0.017032 -0.188659 -0.439135
0.053822 -0.117586 -0.470398
0.091731 -0.187227 -0.431237
0.027936 -0.157100 -0.442872
0.330250 -0.038485 -0.341373
0.060839 0.290090 -0.386670
0.009392 0.243977 -0.336799
0.041150 0.293672 -0.357668
0.242176 0.135973 -0.266285
0.230278 0.145823 -0.201365
0.272048 0.118987 -0.198251
0.289916 0.077485 -0.289374
0.211701 0.130490 -0.222420
0.170995 0.143038 -0.187819
0.217407 0.131055 -0.242060
0.019801 0.241818 -0.087660
0.037662 0.230159 -0.102567
0.088329 0.167943 -0.086226
0.024487 0.203652 -0.006628
0.056771 0.186325 -0.056169
0.170466 -0.194673 -0.109371
0.170735 -0.221928 -0.099264
0.173834 -0.214036 -0.092513
0.111742 0.198111 -0.184556
0.023362 0.214856 -0.180361
-0.003148 0.274371 -0.235291
0.067532 0.275448 -0.216518
0.028541 0.227953 -0.248982
0.233018 0.199996 -0.376191
0.263953 0.058583 -0.255722
0.270263 -0.014277 -0.283236
0.174537 -0.147130 -0.119760
0.186860 -0.136004 -0.196490
0.129218 -0.248687 -0.136047
0.142222 -0.235101 -0.108697
0.145963 -0.165888 -0.183310
0.233473 -0.092943 -0.277009
0.283699 -0.197886 -0.424614
0.320391 -0.149566 -0.481730
0.382781 -0.141675 -0.430575
0.363125 -0.178272 -0.448107
0.277925 -0.140717 -0.383297
0.060772 -0.103283 -0.509291
0.031833 -0.148699 -0.492552
0.030649 0.274942 -0.473722
-0.029243 0.297452 -0.464577
0.065167 0.201605 -0.600181
0.059748 0.219129 -0.592999
0.193182 -0.053552 -0.387024
0.244780 0.023616 -0.448678
0.198675 0.035560 -0.459458
0.186499 -0.080184 -0.474323
0.350574 -0.079148 -0.324466
0.379319 -0.085690 -0.367557
