-0.170217 0.261413 -0.355884
-0.011885 -0.302300 -0.136082
-0.009830 -0.346017 -0.039344
-0.158164 0.098718 -0.038523
-0.166568 0.044241 -0.037251
0.064416 -0.022630 0.920578
0.089997 -0.075235 0.940197
0.278764 0.050665 0.760873
0.270107 -0.020473 0.834839
0.078603 0.160843 0.658606
0.076281 0.132333 0.719730
0.076967 0.117004 0.747959
0.050305 0.107473 0.761035
0.296534 0.218111 0.118020
0.179948 0.141298 0.402629
0.261546 0.052640 0.251649
0.203510 0.118291 0.376370
0.056022 -0.438529 0.744030
0.260333 0.032398 0.301363
0.240374 -0.214034 -0.000786
0.246834 -0.250350 0.400571
0.161725 -0.366202 0.281719
0.131895 -0.386281 0.287414
0.029259 -0.376151 0.026526
0.104292 0.164849 -0.537046
0.105708 0.226512 -0.560145
0.149793 0.221365 -0.554782
0.146772 -0.062756 -0.458247
0.149081 -0.030669 -0.475822
0.128165 -0.012032 -0.514478
0.357365 -0.132294 -0.353547
0.297397 0.119651 -0.286806
0.294131 0.092859 -0.339859
0.205816 0.230250 -0.208946
0.156476 0.237652 -0.167341
0.187126 0.196809 -0.149198
0.151912 -0.293835 -0.036733
0.141967 -0.288814 -0.065015
0.122934 -0.272018 -0.127094
0.230796 0.006073 -0.017211
0.140382 -0.232090 -0.194705
0.274873 0.146924 -0.301815
0.131920 -0.186585 -0.287716
0.147825 -0.167138 -0.322456
0.441488 -0.154457 -0.350279
0.423662 -0.115946 -0.329904
0.261517 0.087806 -0.408525
0.040301 -0.430351 0.401998
0.216989 -0.371022 0.573622
0.230686 -0.358264 0.606222
0.127907 -0.427071 0.653906
0.226188 -0.266938 0.182486
0.191016 -0.301992 0.070576
0.267924 -0.200741 0.182190
0.299991 -0.155403 0.150952
0.226829 0.053893 -0.007787
0.208820 -0.359620 0.727596
0.224915 -0.362545 0.754301
0.229335 -0.345958 0.712754
0.143864 -0.391049 0.778413
0.236801 0.060980 0.468521
0.242059 0.046347 0.441537
0.195873 0.124604 0.422998
0.191252 0.133052 0.256088
0.153921 0.168053 0.347308
0.187979 0.168857 -0.031950
0.096453 0.210756 0.252497
0.053315 0.216455 0.347610
0.073204 0.207667 0.352258
0.192105 0.059992 0.825250
0.163834 0.049711 0.824538
0.024719 -0.361663 0.907490
0.230054 -0.317167 0.715610
0.287237 -0.278820 0.674563
-0.096582 -0.248215 -0.120009
-0.086076 -0.306904 -0.037252
-0.177343 0.192962 -0.180844
-0.173989 0.214859 -0.205823
-0.275307 0.104930 -0.311992
-0.247002 0.112388 -0.273753
-0.177981 -0.092265 -0.193194
-0.254386 -0.141572 -0.340180
-0.086571 0.154452 -0.492264
0.008926 -0.364074 -0.005407
-0.024542 -0.368890 0.030302
-0.070259 -0.411928 0.248568
-0.132332 -0.352757 0.297093
-0.190802 -0.298690 0.363118
-0.182802 -0.296683 0.362638
-0.137991 -0.272170 -0.009121
-0.238232 -0.114450 0.046823
-0.245102 -0.146555 0.088292
-0.273160 -0.117154 0.075558
-0.204274 0.036688 0.329710
-0.227340 -0.065182 0.324400
0.023891 -0.450780 0.700902
-0.021130 -0.434698 0.750706
-0.067623 -0.413527 0.794176
-0.199806 0.099783 0.342254
-0.179052 0.112790 0.273859
-0.197031 0.101696 0.236593
-0.171784 0.201749 -0.038873
-0.139325 0.208464 -0.037462
-0.041918 0.199851 0.338106
-0.024100 0.212641 0.262872
-0.231575 0.094310 0.735288
-0.115765 0.046167 0.853075
-0.183419 0.042320 0.822543
-0.188176 -0.299680 0.800823
-0.200491 -0.270142 0.816607
-0.244534 -0.267025 0.695544
-0.119601 -0.215344 0.945841
-0.172868 -0.221203 0.902929
-0.124381 0.138128 0.744222
-0.096116 0.226934 0.518933
-0.109677 0.237513 0.478027
-0.075544 0.204969 0.553190
-0.049307 0.221946 0.117808
-0.158824 0.148204 -0.021514
-0.252169 0.124190 0.522302
-0.239853 -0.034253 0.216208
-0.227190 -0.136184 0.295291
-0.225136 -0.158658 0.355028
-0.222387 -0.168462 0.326751
-0.212153 -0.211290 0.073478
-0.253383 -0.254974 0.598382
-0.242392 -0.281420 0.609459
-0.199976 -0.340662 0.596532
-0.189497 -0.349867 0.550802
0.013556 -0.447902 0.501085
-0.067748 -0.431199 0.525688
-0.053076 0.083080 -0.485408
-0.034888 0.270380 -0.543133
-0.052377 0.284439 -0.461699
-0.072298 0.269220 -0.494610
-0.181240 -0.118384 -0.437208
-0.326456 -0.114601 -0.341763
-0.163803 -0.124863 -0.228992
-0.049134 0.282184 -0.239041
-0.186107 0.001884 -0.131347
-0.147747 0.157349 -0.105498
0.182959 0.229247 0.620792
0.201210 0.215196 0.627890
0.271495 -0.215772 0.828410
0.254715 -0.217685 0.852125
0.187897 -0.288534 0.885711
0.208027 -0.261439 0.886474
0.132114 0.201338 0.475456
0.086254 0.225763 0.006162
0.058373 0.227098 0.090578
0.338329 0.224848 0.506480
0.308548 -0.087874 0.605719
0.329170 -0.077635 0.587632
0.334662 -0.096723 0.634928
0.301482 0.034407 0.578935
0.277971 -0.064209 0.015807
0.276724 -0.132975 0.434569
0.266399 -0.195008 0.347379
0.235151 -0.274254 0.336338
0.199393 -0.319169 0.230930
0.218567 -0.295584 0.277249
0.141279 -0.336700 0.093793
0.101250 -0.383108 0.155727
0.128187 -0.370054 0.149963
0.107708 -0.386681 0.209082
0.452920 -0.098825 -0.401871
0.093104 0.124415 -0.531743
0.046660 0.225370 -0.590419
0.407210 -0.132241 -0.376178
0.271709 -0.116726 -0.281794
0.166394 -0.206465 -0.163293
0.265965 -0.053273 -0.234707
0.176179 0.272926 -0.409602
0.276088 0.202627 -0.267522
0.281450 0.210415 -0.318300
0.059789 -0.321864 -0.097074
0.079808 -0.335943 -0.046439
0.054628 -0.295861 -0.156963
0.223797 -0.102875 -0.062651
0.164082 0.200463 -0.107512
0.140910 0.220204 -0.111290
0.192565 0.144336 -0.053953
0.248138 -0.003742 -0.159653
0.125681 0.287914 -0.331464
0.086834 0.284569 -0.429031
0.360152 -0.110821 -0.318273
0.249361 -0.099987 -0.448355
0.177191 0.025201 -0.475362
0.363563 -0.071119 -0.370213
0.086627 -0.464975 0.500604
0.027208 -0.456863 0.574399
0.254633 -0.355751 0.619625
0.274380 -0.304712 0.620956
0.246840 -0.338539 0.652848
0.298631 -0.259335 0.595173
0.269325 -0.178032 0.251218
0.309394 0.071768 0.661286
0.328763 0.189755 0.492204
0.294907 0.173356 0.003307
0.062092 0.220791 0.227559
0.297425 0.145508 0.684169
0.279445 0.194864 0.673907
0.272490 -0.098038 0.857191
0.211193 -0.174987 0.896062
0.214457 -0.153677 0.923532
-0.152848 -0.177862 -0.072153
-0.174241 0.011508 -0.075999
-0.171812 0.043706 -0.079475
-0.156149 0.109319 -0.068407
-0.090859 -0.200957 -0.261995
-0.059444 -0.257110 -0.173852
-0.155436 0.269037 -0.320983
-0.175048 0.253130 -0.287023
-0.236141 0.199918 -0.329444
-0.251529 0.142625 -0.310269
-0.088722 -0.131304 -0.399002
-0.357007 -0.132268 -0.390416
-0.314616 -0.135527 -0.412673
-0.228736 -0.144675 -0.407090
-0.203275 -0.005582 -0.375289
0.017187 -0.456884 0.603131
0.016647 -0.457001 0.631719
-0.054291 -0.436293 0.666289
-0.197126 -0.297002 0.470005
-0.190975 -0.286925 0.441867
-0.203190 -0.307750 0.504424
-0.205812 -0.322267 0.537257
-0.263146 -0.181936 0.536449
-0.277801 -0.185350 0.672987
-0.276576 -0.185342 0.634262
-0.268800 -0.218131 0.669351
-0.221875 -0.053768 0.009499
-0.204384 -0.140671 -0.004881
-0.259788 0.036919 0.597714
-0.263885 0.046124 0.645089
-0.268387 0.006262 0.612809
-0.277098 -0.084406 0.579140
-0.267028 0.197042 0.578225
-0.273137 0.222444 0.550875
-0.259916 0.125395 0.130927
-0.216742 0.089385 0.216659
-0.167846 0.144414 0.454816
-0.132816 0.179135 -0.029443
-0.131578 0.172771 0.211086
-0.060522 0.193898 0.605690
-0.055555 0.184530 0.613813
-0.252775 0.164973 0.657732
-0.067141 0.031435 0.873679
-0.072861 0.005828 0.902488
0.004559 0.080328 0.804705
-0.027778 0.069788 0.823773
-0.014623 -0.420409 0.796697
-0.019226 -0.405173 0.826478
-0.212804 -0.161511 0.861817
-0.148251 0.187734 0.694963
-0.074311 0.196576 0.576048
-0.032075 0.197206 0.547798
-0.227117 0.236994 0.119791
-0.275275 0.163567 -0.001999
-0.211032 0.211090 -0.040214
-0.116503 0.135036 0.337920
-0.109011 0.178735 0.232700
-0.113013 0.168828 0.286322
-0.185551 0.070156 0.394718
-0.262116 0.129889 0.570487
-0.256783 0.097718 0.576905
-0.250661 0.047537 0.572933
-0.220861 0.044535 0.453635
-0.207834 0.008286 0.459057
-0.200472 -0.233929 0.116807
-0.147482 -0.297974 0.089502
-0.126604 -0.319922 0.076900
-0.215118 -0.253170 0.189055
-0.214207 -0.212246 0.190130
-0.099649 -0.416032 0.623931
-0.160667 -0.373680 0.645423
0.014908 -0.424469 0.371179
-0.058584 -0.421131 0.431630
-0.372575 -0.083832 -0.350132
-0.007458 0.165618 -0.571812
-0.236958 0.076793 -0.351922
-0.055844 -0.091586 -0.473300
-0.119140 -0.221056 -0.119981
-0.134232 -0.191743 -0.118923
-0.250210 0.039112 -0.290619
-0.201089 0.239938 -0.370773
-0.226044 0.210228 -0.376214
-0.241897 0.173035 -0.374676
-0.003239 0.276338 -0.201536
-0.060466 0.275178 -0.204921
-0.028190 0.267069 -0.177317
0.118002 -0.207631 0.973755
0.097693 -0.230058 0.978204
0.068875 -0.079788 0.951379
0.093705 0.189038 0.506322
0.117353 0.189659 0.476905
0.041960 0.171524 0.627465
0.126338 0.211517 0.133423
0.263857 0.224129 -0.045535
0.239128 0.203924 0.167864
0.272638 0.190596 0.131213
0.233093 0.086274 0.487190
0.330644 -0.129402 0.714538
0.331071 -0.093365 0.718575
0.299856 -0.200335 0.773416
0.312366 -0.171195 0.762942
0.259693 -0.004573 0.003552
0.286244 -0.034376 0.225107
0.267224 -0.067076 0.214419
0.229477 -0.248461 0.051829
0.230541 -0.316170 0.397364
0.172092 -0.330024 0.013254
0.062737 0.075491 -0.525676
0.035144 0.111728 -0.524023
0.223987 0.158667 -0.457506
0.217243 0.124662 -0.442401
0.157659 0.242554 -0.505249
0.445814 -0.130570 -0.392005
0.210951 -0.155467 -0.309453
0.086289 -0.185366 -0.341922
0.050149 -0.139543 -0.423952
0.325226 -0.001607 -0.274921
0.299828 0.010679 -0.260400
0.054215 0.291527 -0.295698
0.270076 0.113820 -0.188909
0.189782 0.216019 -0.174879
0.072198 0.228723 -0.064448
0.215043 0.073829 -0.026511
0.192052 -0.196481 -0.096067
0.022870 0.257997 -0.147881
0.134782 0.264461 -0.205110
0.206334 -0.161661 -0.088092
0.318745 -0.142172 -0.398605
0.267607 -0.146914 -0.371350
0.092160 -0.102864 -0.453118
0.087421 0.288367 -0.444113
0.126906 0.168619 -0.515096
0.375317 -0.046840 -0.330308
0.469251 -0.121683 -0.349844
0.269263 -0.295723 0.522880
0.232195 -0.322219 0.458772
0.336910 -0.134002 0.633472
0.331892 -0.173578 0.629450
0.333775 -0.161710 0.670415
0.314516 -0.179335 0.536060
0.324128 -0.166971 0.563009
0.315891 -0.201984 0.563783
0.245779 -0.117057 -0.017125
0.277274 -0.098571 0.419592
0.269251 -0.053013 0.419384
0.258272 0.001236 0.404020
0.250158 0.024654 0.418439
0.307435 0.081288 0.595415
0.224199 0.068072 0.237769
0.289741 0.072957 0.191596
0.282875 0.053321 0.212308
0.162611 0.223821 0.129364
0.213872 0.189287 0.181672
0.177461 0.170465 0.441500
0.250971 0.263062 0.616759
0.131301 -0.321115 0.904637
0.133846 -0.372315 0.829980
-0.176346 -0.016644 -0.066122
-0.020023 -0.215543 -0.303032
-0.004412 -0.287642 -0.173633
-0.000487 -0.270877 -0.208507
-0.213754 0.231707 -0.344095
-0.404458 -0.113005 -0.427413
-0.262908 0.127103 -0.387881
-0.002512 0.096056 -0.511049
-0.120259 -0.319941 0.047396
-0.058852 -0.342571 -0.002846
-0.199730 -0.248950 0.395097
-0.210829 -0.176384 -0.012009
-0.225040 -0.049134 0.265275
-0.226818 0.045205 0.021050
-0.251833 -0.223553 0.746845
-0.262561 -0.216992 0.708820
-0.272054 -0.093363 0.749474
-0.273851 -0.130089 0.740298
-0.235653 0.230836 -0.068467
-0.105133 0.221955 0.132470
-0.144442 0.168896 0.444619
-0.159245 0.225068 0.648016
-0.126680 -0.332797 0.844325
-0.075275 -0.340060 0.906647
0.024310 -0.287377 0.972428
-0.105811 0.210193 -0.004364
0.020919 -0.194378 0.974129
-0.017339 -0.171393 0.975420
-0.045871 -0.151010 0.971716
-0.038107 -0.207787 0.978166
-0.134380 -0.021740 0.909703
-0.134995 -0.048631 0.922366
-0.119032 -0.071871 0.938496
-0.138980 -0.167762 0.942306
-0.133977 -0.134284 0.945702
-0.139209 -0.092991 0.937592
-0.105473 -0.121986 0.956064
-0.257484 0.249218 0.572062
-0.252771 0.217751 0.611451
-0.252946 0.195125 0.631253
-0.269418 0.204814 0.403616
-0.067903 0.221881 0.043877
-0.100505 0.242798 0.038150
-0.266670 0.205434 0.001673
-0.229767 0.175086 0.434772
-0.248955 0.111147 0.034283
-0.261724 0.079928 0.127757
-0.259645 0.095816 0.096082
-0.263690 0.142025 0.601353
-0.261498 0.099984 0.629724
-0.257323 0.126797 0.661054
-0.211054 0.031989 0.501341
-0.221369 -0.011003 0.488964
-0.231150 -0.038416 0.489864
-0.263905 -0.120572 0.528435
-0.258650 -0.048300 0.537941
-0.252696 -0.071560 0.487846
-0.245796 -0.017029 0.529494
-0.265404 -0.023125 0.136951
-0.260776 -0.058259 0.162176
-0.283809 0.000024 0.168284
-0.249942 -0.072738 0.171040
-0.255858 -0.037045 0.180339
-0.232327 -0.127974 0.450221
-0.231241 -0.162917 0.448817
-0.217658 -0.199726 0.438683
-0.250556 -0.195034 0.509290
-0.262185 -0.152420 0.524844
-0.204615 -0.182662 0.018812
-0.195080 -0.216891 0.035550
-0.068637 -0.433278 0.559400
-0.118601 -0.406525 0.564552
-0.098721 -0.414498 0.519042
-0.135324 -0.393330 0.528407
-0.155959 -0.359392 0.445963
-0.130004 -0.382795 0.441754
-0.140297 -0.379381 0.469591
-0.111800 -0.401779 0.466889
-0.122284 -0.400124 0.493613
-0.003776 -0.412081 0.308647
0.018456 -0.410503 0.280446
-0.031530 -0.398578 0.233453
-0.045157 -0.399222 0.274626
-0.014650 -0.407269 0.273872
-0.280118 -0.076134 -0.432518
-0.250207 -0.071852 -0.424534
-0.059125 0.103919 -0.492897
-0.076596 0.111437 -0.469450
-0.158621 0.000335 -0.463578
-0.132693 -0.038771 -0.451164
-0.170500 0.016514 -0.429069
-0.133950 0.132050 -0.458011
-0.077419 0.261624 -0.548759
-0.108895 0.236141 -0.504828
-0.192350 -0.151874 -0.322111
0.007769 -0.132843 -0.433336
0.000676 -0.153021 -0.406062
0.011706 -0.188409 -0.357702
-0.044817 -0.162210 -0.377398
-0.019953 -0.195239 -0.338506
-0.051664 -0.140667 -0.433092
-0.070138 0.289937 -0.357043
-0.012821 0.292257 -0.296730
-0.031883 0.293331 -0.317763
-0.002908 0.294750 -0.332791
-0.224912 0.150605 -0.217635
-0.236566 0.148212 -0.246223
-0.238022 0.120278 -0.240423
-0.230132 0.098540 -0.163749
-0.189905 0.153731 -0.160425
-0.016265 0.240130 -0.062632
-0.042280 0.226766 -0.054028
-0.017694 0.234049 0.002635
0.012232 0.242450 -0.073547
0.161813 0.234227 -0.017588
0.053959 -0.126552 0.964861
0.069685 -0.224014 0.979717
0.080805 -0.200261 0.974285
0.114555 -0.151380 0.970529
0.207330 -0.017109 0.893238
0.230750 -0.050802 0.893398
0.187736 -0.064727 0.926149
0.199916 -0.079789 0.909784
0.152583 -0.026256 0.921723
0.180518 -0.029609 0.912218
0.151991 -0.114579 0.955174
0.144496 -0.143548 0.953487
0.296292 0.258088 0.592198
0.311961 0.202433 0.422605
0.134430 0.221789 0.000619
0.132842 0.200189 0.041360
0.148519 0.240745 0.059162
0.228542 0.231037 -0.050073
0.132461 0.206600 -0.025479
0.172174 0.161139 -0.032965
0.312319 0.178965 0.046053
0.307351 0.139340 0.120539
0.311012 0.152266 0.080799
0.264805 0.055833 0.519404
0.295042 0.110050 0.525496
0.281199 0.083380 0.528562
0.304766 -0.057653 0.786408
0.314898 -0.055997 0.758866
0.329900 -0.067254 0.706156
0.313202 0.040866 0.669422
0.314144 0.012044 0.704192
0.303115 0.037337 0.713938
0.311200 -0.039062 0.105364
0.302996 -0.017837 0.044083
0.306356 0.041352 0.081119
0.303918 0.074368 0.070713
0.276601 -0.165605 0.222350
0.279684 -0.168707 0.192452
0.289720 -0.119932 0.200384
0.285280 -0.083743 0.240895
0.283207 -0.192021 0.070409
0.192300 -0.369322 0.435268
0.169435 -0.383682 0.398797
0.150437 -0.404353 0.435914
0.124962 -0.399539 0.345330
0.138139 -0.401170 0.383193
0.156283 -0.383477 0.342485
0.081053 -0.396499 0.221170
0.062570 -0.397454 0.174212
0.023562 -0.402284 0.206287
0.041545 -0.391763 0.104591
0.041576 -0.396533 0.137866
0.250290 -0.033350 -0.372730
0.296298 -0.027802 -0.347932
0.279724 -0.050746 -0.362383
0.136482 0.044819 -0.484849
0.165436 0.062039 -0.464343
0.058165 0.009891 -0.491687
0.248414 0.112515 -0.424150
0.254427 0.152668 -0.439051
0.157231 0.193154 -0.503370
0.285206 -0.101277 -0.458947
0.367958 -0.121941 -0.453472
0.186693 -0.147332 -0.387018
0.209499 -0.156003 -0.361352
0.182825 -0.159824 -0.341828
0.253214 -0.151802 -0.368742
0.251883 -0.152055 -0.376471
0.158273 -0.116450 -0.408550
0.147381 -0.141485 -0.381684
0.105339 0.288619 -0.395544
0.031329 0.296636 -0.396804
0.024600 0.295944 -0.352332
0.261813 0.010039 -0.187528
0.272615 0.044866 -0.201011
0.291990 0.084204 -0.247005
0.283710 0.060938 -0.228256
0.283346 0.099111 -0.213685
0.252619 0.024655 -0.157738
0.054263 0.251258 -0.102831
0.109181 0.232354 -0.093583
0.106661 0.242388 -0.121821
0.186043 -0.261426 -0.027238
0.207978 -0.218256 -0.038424
0.175863 -0.220683 -0.109143
0.229598 -0.122916 -0.041200
0.231327 -0.085766 -0.038240
0.227825 -0.033469 -0.065003
0.225577 -0.068188 -0.071260
0.218807 -0.088990 -0.137142
0.225395 -0.050138 -0.097898
0.031059 -0.266181 -0.225120
0.022354 -0.249118 -0.253459
0.079662 -0.227288 -0.270504
0.064527 -0.215959 -0.305317
0.249361 0.245216 -0.332165
0.139675 0.251182 -0.435811
0.339663 -0.071384 -0.284656
0.330843 -0.035595 -0.276615
0.372188 -0.078189 -0.295753
0.403714 -0.111248 -0.460261
0.443843 -0.104837 -0.440346
0.078589 0.287467 -0.496552
0.085697 0.253327 -0.565536
0.208173 0.209941 -0.474652
0.202464 -0.005571 -0.437966
0.226490 0.013818 -0.419335
0.215471 0.029115 -0.441856
0.117950 0.114875 -0.477075
0.104034 0.143719 -0.488660
0.350831 -0.089188 -0.462130
0.316673 -0.089798 -0.466892
0.276199 -0.070885 -0.434965
0.316652 -0.075409 -0.438531
0.102257 -0.403286 0.320293
0.046821 -0.405506 0.244210
0.064556 -0.405728 0.272430
0.219703 -0.366230 0.537025
0.204029 -0.374752 0.508213
0.178312 -0.398485 0.541451
0.120722 -0.433878 0.571426
0.151454 -0.415127 0.540688
0.129706 -0.420019 0.472382
0.170678 -0.392665 0.453717
0.252394 -0.182557 0.014406
0.266351 -0.217113 0.440933
0.287896 -0.187471 0.473857
0.279639 -0.161298 0.446703
0.246326 -0.186731 0.433193
0.302234 -0.139560 0.497841
0.309413 -0.148932 0.511308
0.303481 -0.175908 0.504611
0.315004 -0.015335 0.139795
0.312157 0.022691 0.146622
0.274720 -0.074464 0.451985
0.286178 -0.131923 0.458786
0.289037 -0.058180 0.499803
0.275817 -0.048261 0.472580
0.267502 -0.010876 0.484698
0.282177 -0.025283 0.507338
0.294703 0.017128 0.554199
0.284258 -0.097430 0.530646
0.308210 0.102493 0.651403
0.268038 0.090849 0.043600
0.286008 0.094696 0.132138
0.278749 0.135189 0.479027
0.294440 0.161623 0.459175
0.192741 0.234569 -0.044870
0.054832 0.207477 0.406114
0.047331 0.204858 0.438900
0.092104 0.191774 0.447476
0.283877 0.203298 0.402995
0.186691 0.163082 0.716780
0.157304 0.179100 0.679408
0.172758 0.200368 0.654298
0.029561 0.088684 0.791379
0.062216 0.088942 0.794178
0.033515 0.072077 0.819229
0.088626 0.078318 0.813459
0.044093 0.040780 0.859482
0.114147 0.003421 0.901887
0.137180 0.011227 0.869208
0.097535 0.022063 0.883718
0.107644 0.044579 0.858841
0.119909 0.078721 0.816972
0.152060 0.096448 0.793784
0.132469 0.061682 0.838769
0.025923 -0.382060 0.875526
0.033811 -0.418624 0.804397
0.073514 -0.439872 0.803093
0.075216 -0.394269 0.838226
0.006008 0.246963 -0.081881
-0.027616 0.250821 -0.142980
-0.057686 0.234503 -0.104668
-0.182175 0.039183 -0.115595
-0.190537 0.068691 -0.129071
-0.164557 0.135283 -0.114073
-0.185298 0.095530 -0.133189
-0.220993 0.016618 -0.209471
-0.214782 0.067967 -0.172408
-0.217171 0.099729 -0.178366
-0.229280 0.057898 -0.210632
-0.045297 0.289958 -0.431076
-0.140858 -0.150556 -0.222727
-0.221624 -0.138888 -0.310212
-0.338069 -0.119101 -0.452803
-0.379869 -0.125292 -0.420260
-0.364879 -0.130839 -0.382431
-0.196105 0.180593 -0.448872
0.011599 -0.046509 -0.508755
-0.030895 -0.010423 -0.489410
-0.033910 0.132036 -0.520704
-0.032349 0.097464 -0.501279
-0.186186 -0.056216 -0.405536
-0.161125 -0.081578 -0.426556
-0.267048 -0.071115 -0.400174
-0.385533 -0.092809 -0.412617
-0.326200 -0.079982 -0.430825
-0.084797 -0.375623 0.216694
-0.075696 -0.375809 0.185129
-0.057476 -0.380058 0.151535
-0.091906 -0.362481 0.161525
-0.112219 -0.336268 0.101423
-0.096985 -0.377215 0.123225
-0.077102 -0.356147 0.062537
-0.074470 -0.364138 0.103141
-0.134447 -0.335750 0.222625
-0.161129 -0.308693 0.266626
-0.150539 -0.327871 0.288265
-0.201872 -0.244969 0.354027
-0.189840 -0.266871 0.312757
-0.190548 -0.260823 0.282624
-0.203100 -0.233126 0.286417
-0.209789 -0.217307 0.385297
-0.218400 -0.183526 0.378835
-0.209630 -0.218234 0.414861
-0.248219 -0.145716 0.413152
-0.225328 -0.111245 0.423291
-0.228353 -0.096733 0.389742
-0.240285 -0.061399 0.036146
-0.239103 -0.002164 0.029779
-0.254101 0.007356 0.064677
-0.257848 -0.031452 0.078437
-0.263332 -0.046769 0.106573
-0.263730 0.048372 0.122716
-0.262753 0.017528 0.102686
-0.255468 0.032484 0.073496
-0.245268 0.063620 0.044571
-0.285889 -0.063965 0.669547
-0.285875 -0.089884 0.697423
-0.279615 -0.060523 0.707724
-0.271147 -0.054491 0.720957
-0.261781 -0.074970 0.765848
-0.257105 0.006102 0.735185
-0.251742 0.041677 0.719860
-0.259336 0.050638 0.677925
-0.204667 0.132150 -0.002622
-0.226913 0.115362 0.020982
-0.169989 0.122381 -0.021907
-0.015088 0.217932 0.219674
0.002352 0.224603 0.174078
-0.061031 0.217865 0.170760
-0.066726 0.207022 0.174577
-0.072674 0.201938 0.206052
-0.137281 0.203282 0.666475
-0.105575 0.196916 0.646746
-0.205924 -0.017033 0.847246
-0.195604 -0.035561 0.873242
-0.211822 0.001737 0.825815
-0.242628 0.016333 0.761160
-0.232157 0.007095 0.789400
0.010903 0.010013 0.893421
-0.003820 -0.016320 0.915745
-0.034229 -0.007628 0.910560
-0.052115 -0.026848 0.925020
-0.101345 -0.200419 0.962516
-0.115269 -0.155646 0.958254
-0.073663 -0.194051 0.971770
0.067672 -0.256771 0.979793
0.031020 -0.232866 0.975071
-0.153080 0.245590 -0.450692
-0.020696 -0.347743 0.914417
-0.081361 -0.070970 0.947767
-0.053798 -0.104762 0.960697
-0.047306 -0.073068 0.949308
-0.015784 -0.110181 0.962495
-0.222998 0.251619 0.625259
-0.227843 0.184237 0.672285
-0.211081 0.159884 0.716587
-0.007141 0.106343 0.766608
0.007200 0.121158 0.739890
-0.015660 0.132821 0.724594
-0.003282 0.158235 0.671037
-0.038425 0.176627 0.640488
-0.060641 0.170265 0.662296
-0.053878 0.147800 0.706813
-0.093265 0.127605 0.749108
-0.006756 0.210447 0.382159
0.018003 0.212202 0.405216
-0.055215 0.188811 0.405139
-0.044564 0.193628 0.454568
-0.083385 0.187304 0.448837
-0.155826 0.231877 -0.047094
-0.104854 0.203475 -0.050961
-0.133625 0.145545 -0.040239
-0.266513 0.188333 0.061955
-0.261563 0.174490 0.098703
-0.261141 0.152383 0.071807
-0.227036 0.041112 0.527367
-0.237079 0.074304 0.522096
-0.064485 -0.411658 0.768945
-0.081794 -0.390871 0.796636
-0.128226 -0.351692 0.810205
-0.131720 -0.363566 0.778409
-0.161117 -0.364576 0.701688
-0.136337 -0.373330 0.741291
-0.138607 -0.386811 0.751409
-0.111236 -0.399836 0.704479
-0.173208 0.070114 -0.009560
-0.225212 -0.180225 0.204525
-0.224435 -0.168835 0.233211
-0.215951 -0.196820 0.242133
-0.229852 -0.102751 0.267531
-0.231209 -0.122586 0.244108
-0.234422 -0.088395 0.238155
-0.228538 -0.183461 0.077266
-0.219695 -0.178323 0.047247
-0.104354 -0.394062 0.398973
-0.142426 -0.352626 0.342528
-0.127688 -0.369796 0.370159
-0.093822 -0.393734 0.369632
0.013536 -0.405718 0.225140
0.019772 -0.403286 0.188923
-0.011640 -0.397546 0.170698
-0.027968 -0.396575 0.204912
-0.029033 -0.384707 0.110304
0.005868 -0.389355 0.088162
-0.008007 -0.393432 0.130782
-0.300907 -0.073854 -0.389913
-0.230892 -0.011985 -0.352941
-0.219888 -0.042270 -0.360587
-0.085872 0.053698 -0.481134
-0.118004 0.056305 -0.468356
0.001117 0.043467 -0.494956
-0.206511 0.118435 -0.419376
-0.177599 0.127726 -0.439671
-0.096208 0.259968 -0.468966
-0.267025 -0.128445 -0.447927
-0.234760 -0.126094 -0.445607
-0.314544 -0.109887 -0.468256
-0.179923 -0.145510 -0.396137
-0.196786 -0.140354 -0.418424
-0.119973 -0.148358 -0.402392
-0.162680 -0.156275 -0.316290
-0.141794 -0.159819 -0.335272
-0.121913 -0.187429 -0.190432
-0.193655 -0.071843 -0.212062
-0.154613 0.260497 -0.411089
-0.175947 0.255444 -0.383531
-0.099678 0.285753 -0.376989
-0.139289 0.274315 -0.357207
-0.091634 0.284564 -0.382458
-0.233230 0.199260 -0.300011
-0.217755 0.171129 -0.247906
-0.207641 0.221197 -0.265104
-0.234684 -0.004870 -0.201000
-0.226573 0.048647 -0.150077
0.014506 -0.300530 -0.151865
0.016391 -0.326331 -0.095402
-0.037641 -0.327051 -0.056487
-0.011030 -0.345695 -0.096798
-0.035894 -0.302455 -0.111344
-0.207292 -0.018709 -0.034614
-0.178259 0.020467 -0.019559
0.109848 -0.317259 0.929762
0.128257 -0.296089 0.936372
0.039055 -0.018017 0.915775
0.082499 0.001784 0.903099
0.251642 0.061461 0.765264
0.250117 0.040019 0.811166
0.248902 0.016984 0.833075
0.300673 -0.022902 0.778568
0.286225 -0.052577 0.824412
0.286485 0.004086 0.786133
0.025503 0.163238 0.653194
0.058249 0.148891 0.682306
0.028305 0.132225 0.719531
0.132515 0.115241 0.763104
0.107851 0.132096 0.731535
0.119417 0.152052 0.699121
0.111036 0.171461 0.654546
0.290730 0.243050 0.098828
0.272877 0.231695 0.128937
0.319328 0.232167 -0.003829
0.130005 0.178714 0.371690
0.162521 0.158144 0.384545
0.133043 0.181457 0.451661
0.164226 0.157497 0.427810
0.214220 0.121031 0.295394
0.230203 0.110215 0.269923
0.226290 0.097116 0.313000
0.212117 0.110771 0.349705
0.245092 0.049145 0.379777
0.216168 0.065225 0.342303
0.250405 0.062582 0.284420
0.115834 -0.398568 0.803369
0.087693 -0.422801 0.767181
0.057336 -0.429003 0.772147
0.103217 -0.431712 0.706486
0.070465 -0.443639 0.708394
0.280253 -0.046775 0.267697
0.277023 -0.035740 0.296279
0.274557 -0.011515 0.254301
0.259267 0.012532 0.365103
0.268804 -0.017324 0.362865
0.259027 0.020494 0.338021
0.276298 -0.054939 0.350389
0.273263 -0.022012 0.324205
0.298277 -0.139410 0.104157
0.292218 -0.129832 0.068011
0.296369 -0.052749 0.053723
0.299621 -0.098779 0.074754
0.307428 -0.075912 0.093898
0.222937 -0.227460 0.001301
0.218032 -0.311574 0.371147
0.240061 -0.264014 0.376074
0.166971 -0.368697 0.315819
0.140081 -0.387406 0.315090
0.111347 -0.388812 0.239354
0.141061 -0.375602 0.239353
0.179053 -0.344633 0.243639
0.092011 -0.357164 0.018679
0.062896 -0.376802 0.048746
0.038077 -0.384621 -0.015769
0.325956 -0.050536 -0.349227
0.107778 0.186381 -0.559512
0.273274 0.032128 -0.362263
0.090257 0.274311 -0.559798
0.092271 -0.075689 -0.480751
0.181884 -0.000949 -0.462393
0.178140 -0.030131 -0.454766
0.331404 -0.112861 -0.310381
0.320193 -0.133268 -0.333219
0.287093 -0.053567 -0.258424
0.302727 -0.026004 -0.261692
0.217010 -0.109415 -0.175893
0.296913 0.089078 -0.306971
0.300018 0.119572 -0.326732
0.248149 0.234133 -0.413999
0.232590 0.225175 -0.448888
0.224814 0.245115 -0.427069
0.226123 0.256559 -0.388009
0.213558 0.243521 -0.240990
0.160359 0.259725 -0.245618
0.159164 0.263114 -0.223544
0.167800 0.247626 -0.198566
0.200670 0.166285 -0.125873
0.210306 0.138499 -0.111269
0.235803 0.148255 -0.190629
0.116478 -0.310718 -0.059534
0.109438 -0.296303 -0.098737
0.149847 -0.245966 -0.124759
0.171486 -0.252788 -0.071394
0.220874 0.072890 -0.059819
0.213200 0.102920 -0.067773
0.199035 0.050073 -0.040401
0.228325 0.028452 -0.098392
0.227176 0.014468 -0.073042
0.111783 -0.248931 -0.187767
0.093698 -0.250212 -0.213139
0.116446 -0.221052 -0.235540
0.137833 -0.196124 -0.252791
0.150256 -0.211937 -0.189392
0.204471 0.251111 -0.292531
0.207306 0.259058 -0.272638
0.223906 0.259097 -0.324798
0.194518 0.272224 -0.316454
0.158389 0.279792 -0.277894
0.300908 0.141137 -0.353771
0.296434 0.179440 -0.342982
0.116039 -0.182185 -0.320092
0.125367 -0.163937 -0.352595
0.149710 -0.162376 -0.296109
0.101921 -0.161931 -0.370997
0.127793 -0.128279 -0.405223
0.056734 -0.066846 -0.478815
0.145984 0.259756 -0.472594
0.028317 0.280634 -0.532414
0.278842 0.071941 -0.365468
0.291717 0.062069 -0.333246
0.278870 0.117368 -0.397978
0.043810 0.164402 -0.571956
0.058939 0.183390 -0.589398
0.079014 0.165833 -0.561270
0.077379 0.143441 -0.537881
0.216510 0.073418 -0.441917
0.414988 -0.058829 -0.327861
0.399233 -0.066169 -0.341642
0.450616 -0.101628 -0.328887
0.080428 -0.433487 0.446441
0.102596 -0.422350 0.420290
0.084134 -0.422886 0.396631
0.057945 -0.414137 0.328289
0.029816 -0.418488 0.338492
0.058325 -0.419935 0.357432
0.090541 -0.412614 0.353261
0.223597 -0.361624 0.637217
0.213476 -0.364816 0.688703
0.185271 -0.416961 0.656148
0.182402 -0.397405 0.624321
0.205416 -0.378366 0.621956
0.159127 -0.408953 0.651374
0.140516 -0.422449 0.611546
0.168670 -0.406642 0.569787
0.187939 -0.393431 0.570860
0.184800 -0.330749 0.204957
0.216986 -0.286974 0.213818
0.214973 -0.282232 0.153408
0.193761 -0.311028 0.156558
0.209352 -0.293236 0.181637
0.175772 -0.322800 0.088210
0.198915 -0.324800 0.129974
0.238796 -0.241540 0.082533
0.202172 -0.260539 0.109180
0.217370 -0.270464 0.080259
0.248585 -0.258397 0.164429
0.231756 -0.257172 0.154810
0.254637 -0.222436 0.207232
0.258104 -0.222092 0.112215
0.286843 -0.164167 0.159995
0.292053 -0.164232 0.119773
0.307935 -0.106734 0.118696
0.312003 -0.071809 0.145706
0.212864 -0.316897 0.824009
0.201869 -0.336914 0.804188
0.177551 -0.386179 0.795965
0.133790 -0.417105 0.705067
0.116724 -0.418498 0.722666
0.174188 -0.393858 0.700331
0.141656 -0.404005 0.744193
0.178994 -0.384778 0.701870
0.227945 0.077714 0.421060
0.212816 0.103076 0.403071
0.196102 0.135773 0.455780
0.222288 0.088338 0.456036
0.148810 0.182991 0.265551
0.162649 0.144632 0.293017
0.133966 0.186874 0.307966
0.195922 0.134410 0.330635
0.173222 0.157812 0.324835
0.186337 0.152811 0.290061
0.138979 0.198885 -0.053305
0.066207 0.218492 0.269578
0.039350 0.219754 0.310941
0.114634 0.194101 0.332469
0.100872 0.197428 0.335080
0.126391 0.183840 0.361895
0.083926 0.209688 0.327760
0.095024 0.209279 0.285171
0.118597 0.199800 0.268517
0.280326 0.089582 0.705878
0.249319 0.100242 0.762081
0.273172 0.086093 0.753355
0.232800 0.084157 0.781216
0.207336 0.079648 0.799199
0.163248 -0.003060 0.900015
0.178377 0.024146 0.869202
0.213785 0.000406 0.851069
0.232896 -0.000543 0.862579
0.052674 -0.366164 0.895262
0.299387 -0.252398 0.707998
0.300900 -0.236240 0.737112
0.285160 -0.262233 0.743996
0.291697 -0.231210 0.766803
0.279896 -0.226592 0.801568
0.275483 -0.255943 0.778173
0.229306 -0.311737 0.800233
0.249609 -0.297051 0.780339
0.263573 -0.293017 0.751825
-0.068866 -0.291182 -0.139144
-0.070524 -0.281106 -0.145587
-0.061189 -0.290045 -0.101476
-0.063257 -0.303700 -0.071861
-0.106397 -0.282427 -0.044464
-0.101599 -0.257580 -0.092175
-0.152536 0.188144 -0.145786
-0.152419 0.206949 -0.169619
-0.121204 0.220447 -0.156223
-0.162735 0.249878 -0.253427
-0.174066 0.230544 -0.230680
-0.114920 0.244108 -0.191193
-0.141648 0.234256 -0.199285
-0.106342 0.266447 -0.229655
-0.141392 0.250684 -0.228610
-0.202980 0.212600 -0.436827
-0.203836 0.229449 -0.407598
-0.182386 0.241013 -0.423348
-0.243461 0.090804 -0.254240
-0.247269 0.086607 -0.289985
-0.245142 0.155549 -0.279035
-0.259208 -0.082602 -0.277870
-0.285532 -0.103304 -0.306203
-0.298160 -0.129573 -0.348504
-0.090493 -0.010662 -0.485920
-0.087228 -0.050916 -0.468605
-0.080797 0.198160 -0.537273
-0.230998 0.030732 -0.354360
-0.058333 0.183257 -0.552046
-0.192652 0.083798 -0.424350
-0.251102 -0.063850 -0.368133
-0.311885 -0.054536 -0.371170
-0.276154 -0.038732 -0.338930
-0.017674 -0.381780 0.067383
-0.040658 -0.339676 -0.027145
-0.020522 -0.360605 0.001628
-0.091955 -0.388712 0.333235
-0.105156 -0.375641 0.295765
-0.134193 -0.345727 0.268528
-0.110426 -0.359355 0.232821
-0.097523 -0.376575 0.266085
-0.162448 -0.329983 0.355960
-0.193349 -0.326641 0.410430
-0.160547 -0.276376 0.048967
-0.133469 -0.295885 0.018287
-0.253849 -0.143346 0.040957
-0.260566 -0.095337 0.112245
-0.281684 -0.062941 0.079443
-0.241992 0.037476 0.250549
-0.213788 0.013554 0.299200
-0.248588 -0.034660 0.300674
-0.224005 -0.058478 0.379167
-0.222913 -0.042255 0.345062
-0.207518 0.017474 0.365829
-0.216501 -0.007626 0.349796
-0.019721 -0.434706 0.762410
-0.064425 -0.432945 0.726408
-0.008125 -0.446444 0.707048
-0.162971 0.123987 0.295203
-0.168881 0.144730 0.229725
-0.203256 0.077444 0.253172
-0.186030 0.091469 0.294535
-0.201343 0.061934 0.257871
-0.193439 0.068018 0.320882
-0.104923 0.167984 0.438732
-0.090340 0.171654 0.405460
-0.131434 0.141310 0.387788
-0.131688 0.145453 0.433239
-0.193690 0.181654 -0.031718
-0.109635 0.201545 -0.031635
0.024368 0.218680 0.349160
-0.000768 0.214438 0.333219
0.015146 0.221155 0.220732
0.022972 0.222158 0.280146
-0.025973 0.208755 0.302909
-0.043645 0.209010 0.235824
-0.056218 0.199170 0.276939
-0.074532 0.160955 0.335595
-0.227169 0.196838 0.407525
-0.225418 0.127715 0.731003
-0.210650 0.108700 0.751307
-0.228713 0.055516 0.756877
-0.119089 0.112803 0.771263
-0.107845 0.096888 0.793927
-0.134486 0.062653 0.829751
-0.160796 0.073579 0.807456
-0.172159 -0.021760 0.886201
-0.155325 0.035770 0.851089
-0.171195 -0.014242 0.861642
-0.134016 0.020707 0.874551
-0.235915 -0.210924 0.800976
-0.215611 -0.266782 0.819336
-0.225539 -0.273878 0.761422
-0.216655 -0.263704 0.768439
-0.245187 -0.248681 0.730547
-0.196932 -0.328050 0.720223
-0.197829 -0.335870 0.686879
-0.220840 -0.305248 0.705264
-0.207926 -0.304603 0.747577
-0.188094 -0.323549 0.757101
0.030752 -0.333794 0.939353
0.004215 -0.302235 0.962256
-0.128096 0.215220 0.639034
-0.107200 0.217894 0.589584
-0.112977 0.234258 0.588910
-0.173311 0.249289 0.606028
-0.087926 -0.293732 0.947533
-0.120519 -0.241666 0.954017
-0.090533 -0.224134 0.972401
-0.140569 -0.265618 0.901627
-0.139425 -0.239000 0.920289
-0.163031 -0.234713 0.897888
-0.148282 -0.199412 0.928367
-0.213061 -0.211076 0.842338
-0.181041 -0.236788 0.874038
-0.198318 -0.205828 0.866616
-0.176673 -0.290978 0.856219
-0.169908 -0.299817 0.808074
-0.142268 0.165007 0.718565
-0.172637 0.153429 0.733409
-0.182889 0.083761 0.783378
-0.175121 0.109125 0.768689
-0.147451 0.117953 0.765740
-0.154456 0.094550 0.788257
-0.108502 0.241860 0.557646
-0.078043 0.194947 0.487386
-0.126798 0.218359 0.436407
-0.020784 0.227579 0.112724
-0.005640 0.232604 0.050650
-0.072317 0.192062 0.010016
-0.030999 0.230416 0.036458
-0.046040 0.226348 0.064733
-0.064358 0.220841 0.088793
-0.238841 0.159306 0.007005
-0.218487 0.161082 -0.012980
-0.265954 0.180462 0.461218
-0.272484 0.169493 0.511602
-0.259555 0.154474 0.490444
-0.254862 0.082594 0.686404
-0.229823 0.022435 0.222564
-0.244991 0.038398 0.193545
-0.215076 -0.195878 0.282124
-0.223986 -0.159194 0.275593
-0.211705 -0.213751 0.335878
-0.228611 -0.101449 0.360312
-0.227074 -0.128696 0.344766
-0.230199 -0.080191 0.297961
-0.228133 -0.115103 0.318510
-0.221269 -0.229505 0.123589
-0.241680 -0.254090 0.533553
-0.241985 -0.269959 0.567165
-0.225216 -0.308022 0.587060
-0.210088 -0.326573 0.571146
-0.187287 -0.351468 0.658059
-0.210341 -0.328059 0.643737
-0.227807 -0.307755 0.623276
-0.256630 -0.252510 0.663490
-0.242098 -0.279733 0.661159
-0.227788 -0.305120 0.671416
0.008346 -0.451229 0.532900
-0.011927 -0.451237 0.555949
-0.018272 -0.447609 0.522408
-0.034875 -0.432923 0.456819
-0.045481 -0.433656 0.485627
-0.012040 -0.443066 0.486708
-0.002594 -0.438682 0.452523
-0.349785 -0.072781 -0.373743
-0.224757 -0.066341 -0.408142
-0.058542 0.026462 -0.488879
-0.099116 0.026285 -0.511959
-0.257712 0.150383 -0.406497
-0.221816 0.188914 -0.423286
-0.214519 0.135584 -0.430920
-0.042582 0.284940 -0.496154
-0.218040 -0.107317 -0.461300
-0.192465 -0.092388 -0.455926
-0.152062 -0.080009 -0.444371
-0.116551 -0.115245 -0.415731
-0.184194 -0.130052 -0.414928
-0.324980 -0.073874 -0.306720
-0.312588 -0.099996 -0.345824
-0.140770 -0.155823 -0.278722
-0.150126 -0.141724 -0.252148
-0.211087 -0.075752 -0.243569
-0.179737 -0.121898 -0.258254
-0.107250 0.268440 -0.432594
-0.068463 0.285790 -0.271964
-0.092950 0.284203 -0.286179
0.028436 0.280158 -0.207522
0.023576 0.286238 -0.238828
-0.010919 0.282725 -0.228632
0.004274 0.290063 -0.271281
-0.199426 -0.009732 -0.170623
-0.184208 -0.032653 -0.149693
-0.186451 -0.087399 -0.207849
-0.167859 -0.083728 -0.141033
-0.116940 0.171837 -0.058053
-0.134746 0.152570 -0.073405
-0.106749 0.190898 -0.080513
-0.095820 0.228837 -0.141607
-0.089433 0.192820 -0.110509
-0.115882 0.199592 -0.112830
0.132354 0.193142 0.630428
0.148641 0.214407 0.598066
0.175702 0.242640 0.592345
0.146008 -0.269884 0.914352
0.136656 -0.235097 0.962133
0.169771 -0.224441 0.943807
0.192610 -0.172492 0.939477
0.157410 -0.202489 0.957997
0.198772 -0.216754 0.921538
0.233625 -0.202363 0.890473
0.177085 -0.256261 0.921060
0.185745 -0.282438 0.864354
0.248591 -0.261217 0.831317
0.235237 -0.239981 0.867407
0.237087 0.127651 0.745469
0.216957 0.145017 0.736485
0.199756 0.101996 0.775819
0.187406 0.123174 0.754702
0.115491 0.197229 0.556187
0.144818 0.223077 0.535801
0.147568 0.225643 0.570906
0.158885 0.235974 0.476759
0.162818 0.220675 0.446463
0.054292 0.235752 -0.006310
0.017614 0.235221 0.046875
0.031267 0.230670 0.105658
0.101482 0.219189 0.116902
0.100395 0.220565 0.086148
0.099294 0.221831 0.055051
0.226497 0.140175 -0.012917
0.225256 0.099269 -0.008231
0.277364 0.102370 0.019409
0.321906 0.164177 0.573584
0.314663 0.155013 0.615048
0.300908 0.190122 0.560655
0.315369 0.239650 0.562612
0.314179 0.209840 0.593718
0.320923 -0.045158 0.584214
0.326180 -0.075608 0.579540
0.308439 -0.027043 0.557688
0.308760 -0.001233 0.577884
0.313693 0.048639 0.641007
0.312632 0.032790 0.612315
0.319426 0.002676 0.616367
0.327470 -0.018614 0.654673
0.271181 -0.122982 -0.010745
0.258663 -0.152124 0.002995
0.266074 -0.191052 0.402262
0.256620 -0.226153 0.377238
0.278813 -0.120155 0.368207
0.276533 -0.157672 0.367138
0.167460 -0.350900 0.344494
0.220196 -0.303406 0.334940
0.204342 -0.319076 0.288802
0.186448 -0.344154 0.255316
0.236304 -0.256452 0.238315
0.252171 -0.227345 0.235921
0.249266 -0.237820 0.293672
0.197727 -0.284050 0.250276
0.250026 -0.242211 0.338085
0.234382 -0.270826 0.303418
0.174732 -0.337287 0.170599
0.161652 -0.356115 0.220771
0.151711 -0.356161 0.165522
0.137787 -0.372455 0.203746
0.121279 -0.358423 0.066822
0.094879 -0.374033 0.083439
0.112411 -0.372817 0.123252
0.141610 -0.355483 0.111631
0.148306 -0.344850 0.084366
0.355108 -0.076591 -0.424346
0.395205 -0.082589 -0.427829
0.419717 -0.085159 -0.435226
0.301332 -0.070439 -0.390436
0.328670 -0.071099 -0.374527
0.188354 -0.058935 -0.443277
0.071194 -0.025688 -0.515423
0.032763 -0.034276 -0.489741
0.091821 -0.000088 -0.493149
0.232846 0.194483 -0.461858
0.253846 0.198582 -0.442654
0.101635 0.231456 -0.583379
0.415401 -0.121769 -0.435996
0.289502 -0.144932 -0.338766
0.291724 -0.129641 -0.307474
0.168129 -0.178091 -0.225059
0.170891 -0.188329 -0.189226
0.185471 -0.164819 -0.199118
0.243960 -0.071687 -0.208457
0.258666 -0.038001 -0.210803
0.274236 -0.046033 -0.229439
0.196548 0.271612 -0.374540
0.129930 0.286939 -0.380562
0.163972 0.281077 -0.381218
0.156620 0.284454 -0.343607
0.288055 0.173114 -0.265092
0.249276 0.231251 -0.268448
0.264925 0.227238 -0.294900
0.229675 0.212525 -0.240399
0.237858 0.038787 -0.121817
0.230791 0.083774 -0.117361
0.256109 0.096725 -0.160364
0.026369 -0.347598 -0.046891
0.026110 -0.314164 -0.125535
0.090111 -0.298654 -0.119317
0.084916 -0.286197 -0.150291
0.087119 -0.317582 -0.081063
0.235201 -0.026950 -0.016926
0.109304 0.213564 -0.083096
0.157703 0.193599 -0.077661
0.184378 0.174618 -0.099706
0.164391 0.211713 -0.136877
0.230710 -0.076294 -0.174173
0.215096 -0.048389 -0.171621
0.229602 -0.022832 -0.118772
0.122683 0.279126 -0.239642
0.130093 0.283662 -0.270238
0.066985 0.288335 -0.286747
0.028273 0.282872 -0.226213
0.243930 -0.101962 -0.244509
0.228742 -0.100550 -0.235570
0.203706 -0.137054 -0.236523
0.222114 -0.132806 -0.265089
0.391548 -0.124891 -0.345314
0.391475 -0.100857 -0.314365
0.190083 -0.092994 -0.433579
0.217757 -0.102056 -0.436157
0.200144 -0.152475 -0.412260
0.119492 0.272735 -0.487349
0.045194 0.261423 -0.550926
0.040925 0.235416 -0.601737
0.293314 0.166820 -0.381773
0.276722 0.167073 -0.417864
0.144675 -0.013685 -0.487957
0.094440 0.075219 -0.492010
0.120620 0.080940 -0.472751
0.263618 -0.059826 -0.384127
0.100800 -0.439032 0.532904
0.025264 -0.451968 0.548130
0.050276 -0.440598 0.461359
0.055841 -0.444636 0.491520
0.101014 -0.430972 0.468391
0.240194 -0.346824 0.564202
0.262684 -0.319277 0.575215
0.259714 -0.273836 0.548291
0.278450 -0.294044 0.571634
0.295779 -0.271038 0.667734
0.275643 -0.299391 0.679514
0.249451 -0.332652 0.688553
0.282841 -0.291956 0.649615
0.280473 -0.186856 0.141082
0.273894 -0.197208 0.083353
0.249033 -0.225176 0.060326
0.270336 -0.207782 0.114074
0.260352 -0.213826 0.309693
0.244830 -0.182598 0.339115
0.262379 -0.204031 0.259829
0.270107 -0.177710 0.286372
0.279848 -0.122514 0.281784
0.278121 -0.141319 0.314938
0.280222 -0.109439 0.335714
0.281576 -0.089699 0.309780
0.298319 0.039863 0.187377
0.298617 0.003439 0.194769
0.284544 0.018416 0.217587
0.295262 0.101325 0.707685
0.301087 0.066757 0.704133
0.290925 0.056709 0.733853
0.306480 0.118622 0.502839
0.312586 0.133508 0.548355
0.332587 0.199561 0.496582
0.321747 0.164345 0.542087
0.267260 0.176660 -0.020577
0.260924 0.144267 -0.004091
0.291932 0.215275 0.065581
0.319673 0.215936 0.037105
0.065188 0.225156 0.122068
0.030236 0.228840 0.135860
0.043347 0.224479 0.190418
0.110233 0.208673 0.197085
0.079797 0.219335 0.202391
0.117961 0.208869 0.169037
0.079010 0.221327 0.170523
0.186334 0.221190 0.422525
0.338267 0.214305 0.478662
0.301389 0.197214 0.637983
0.300253 0.167122 0.663402
0.292406 0.227290 0.628544
0.267498 0.172939 0.701258
0.256969 -0.045620 0.840718
0.250486 -0.096993 0.885817
0.232733 -0.138064 0.905211
0.222075 -0.110677 0.916313
0.279394 -0.182055 0.829867
0.268749 -0.136812 0.861828
0.286676 -0.131996 0.834158
0.059405 -0.342773 0.927259
0.179798 0.235402 -0.460841
0.181038 0.254476 -0.451058
-0.134173 -0.209445 -0.087227
-0.123821 -0.243906 -0.068248
-0.136589 -0.253693 -0.032606
-0.165696 0.102894 -0.094322
-0.166717 0.077427 -0.073923
-0.174998 0.073368 -0.103282
-0.056070 -0.217525 -0.263447
-0.063046 -0.195079 -0.299451
-0.091845 -0.237118 -0.180723
-0.098178 -0.218301 -0.183805
-0.080051 -0.222258 -0.211658
-0.112099 0.249941 -0.263120
-0.143576 0.266767 -0.278038
-0.120569 0.279701 -0.309786
-0.249210 0.150578 -0.345927
-0.244136 0.174854 -0.310997
-0.082415 -0.160253 -0.358250
-0.109298 -0.158856 -0.345215
-0.087467 -0.178339 -0.338336
-0.117436 -0.185641 -0.270826
-0.114541 -0.167090 -0.289115
-0.102950 -0.090742 -0.434721
-0.299509 -0.126110 -0.447217
-0.257569 -0.138701 -0.421384
-0.251207 -0.146876 -0.370442
-0.290391 -0.140272 -0.374004
-0.013815 -0.114740 -0.448488
-0.020564 -0.091757 -0.466748
0.027430 0.295017 -0.456982
-0.003194 0.293394 -0.472685
-0.032444 0.291307 -0.438077
-0.000446 0.253307 -0.560337
0.018446 0.210942 -0.591907
-0.116975 0.166433 -0.483619
-0.099705 0.131530 -0.470744
-0.187603 0.007252 -0.401109
-0.204026 0.053028 -0.398943
-0.064107 0.164370 -0.524030
-0.216019 -0.074766 -0.452711
-0.377461 -0.071643 -0.315445
-0.353379 -0.050146 -0.308170
-0.331600 -0.029116 -0.295221
-0.006105 -0.450602 0.678606
-0.009596 -0.452981 0.649237
-0.045129 -0.436977 0.693424
-0.023835 -0.450779 0.584850
-0.063925 -0.435799 0.611308
-0.038557 -0.470179 0.638355
-0.014360 -0.453203 0.615674
-0.172226 -0.334804 0.458175
-0.181358 -0.345971 0.508012
-0.236345 -0.239076 0.503950
-0.229408 -0.281013 0.531763
-0.225177 -0.266615 0.506134
-0.207436 -0.265449 0.440439
-0.257295 -0.215699 0.545725
-0.269362 -0.184488 0.566244
-0.264617 -0.221720 0.588382
-0.267243 -0.218209 0.628254
-0.288310 -0.107014 0.639262
-0.284295 -0.146857 0.634546
-0.274192 -0.115914 0.556714
-0.283755 -0.109781 0.598961
-0.278642 -0.159184 0.594377
-0.198118 -0.054542 -0.009455
-0.202996 -0.110657 -0.010268
-0.222792 -0.126816 0.017478
-0.221142 -0.088246 0.006909
-0.257197 -0.012221 0.555643
-0.258799 0.011407 0.576637
-0.267440 -0.036932 0.570989
-0.282983 -0.070198 0.616205
-0.273634 -0.027890 0.597395
-0.281606 -0.047061 0.636435
-0.275721 -0.012255 0.617420
-0.277908 0.193921 0.537760
-0.281452 0.227698 0.523545
-0.266390 0.167368 0.583307
-0.257440 0.069073 0.155864
-0.242610 0.076608 0.184402
-0.231193 0.058762 0.184719
-0.193673 0.124646 0.217469
-0.241439 0.123947 0.196602
-0.234134 0.125204 0.146181
-0.212879 0.125362 0.477762
-0.197122 0.160903 0.443444
-0.097265 0.188711 0.201448
-0.087516 0.181026 0.151782
-0.171489 0.212425 0.406835
0.007566 0.173902 0.632402
0.004994 0.183772 0.600976
0.021872 0.190529 0.570437
-0.236644 0.227201 0.635738
-0.231721 0.203467 0.662197
-0.231522 0.179382 0.684855
-0.246762 0.134428 0.694254
0.015082 0.034578 0.866005
-0.014879 0.022681 0.880957
0.024976 0.054373 0.842359
-0.006128 0.051952 0.847854
-0.081117 0.108197 0.777106
-0.056521 0.085373 0.804821
-0.096815 0.064334 0.836729
-0.070373 0.055858 0.846723
-0.089666 0.030344 0.875461
0.014688 -0.403211 0.837902
-0.046457 -0.365341 0.889625
-0.014270 -0.391645 0.854341
-0.041237 -0.378515 0.859550
-0.053724 -0.340013 0.937379
0.019952 -0.277101 0.948805
-0.020948 -0.313873 0.954973
-0.176911 -0.131545 0.911641
-0.195686 -0.175726 0.883000
-0.209473 -0.120711 0.875175
-0.192844 -0.068619 0.888713
-0.188622 -0.107361 0.898482
-0.230832 -0.059728 0.837346
-0.241541 -0.113180 0.820976
-0.255099 -0.111173 0.795714
-0.228430 -0.093292 0.843714
-0.254276 -0.164018 0.835842
-0.210647 0.220133 0.665658
-0.198909 0.238784 0.617916
-0.002676 0.199695 0.528524
0.012819 0.202518 0.497393
-0.042681 0.196827 0.509610
-0.196727 0.194903 0.413116
-0.259227 0.233783 0.078685
-0.274414 0.232387 0.013468
-0.112041 0.159080 0.370019
-0.077801 0.194055 0.256916
-0.082995 0.186031 0.293437
-0.151073 0.145485 0.264349
-0.138285 0.121998 0.294672
-0.127048 0.162890 0.253731
-0.139363 0.140921 0.330792
-0.153763 0.120404 0.369643
-0.144792 0.127504 0.411877
-0.168933 0.099706 0.399599
-0.195948 0.051766 0.487159
-0.182993 0.069867 0.444659
-0.163257 0.108075 0.439550
-0.242273 0.081009 0.547023
-0.257334 0.072526 0.594189
-0.205478 0.016985 0.399777
-0.221623 0.050005 0.374911
-0.210736 -0.004993 0.420151
-0.200978 0.024318 0.428986
-0.218593 -0.025817 0.384480
-0.220110 -0.043422 0.462371
-0.219455 -0.054524 0.431914
-0.254170 -0.155989 0.109803
-0.240981 -0.174068 0.124395
-0.233107 -0.179090 0.152840
-0.264631 -0.066552 0.130311
-0.254796 -0.123784 0.148206
-0.194606 -0.233072 0.064122
-0.201785 -0.259914 0.068870
-0.141403 -0.299207 0.053967
-0.171206 -0.274101 0.109499
-0.129456 -0.327360 0.137640
-0.146820 -0.308593 0.155182
-0.155980 -0.294293 0.126513
-0.213854 -0.241081 0.158722
-0.178612 -0.271521 0.170564
-0.198321 -0.239009 0.153196
-0.159344 -0.299998 0.197889
-0.189935 -0.296599 0.231316
-0.179013 -0.275016 0.211730
-0.201705 -0.233046 0.209139
-0.189515 -0.257302 0.235379
-0.081415 -0.423561 0.661517
-0.126169 -0.398199 0.651720
-0.148969 -0.378832 0.676118
-0.162656 -0.374252 0.582829
-0.171266 -0.367744 0.614324
-0.142978 -0.389029 0.624457
-0.138923 -0.392793 0.589657
-0.094244 -0.419569 0.592790
-0.001569 -0.431288 0.389200
-0.054938 -0.423915 0.401099
-0.049451 -0.409805 0.355974
-0.058208 -0.412450 0.358678
-0.007201 -0.415745 0.336646
-0.394848 -0.096758 -0.370001
-0.301366 -0.031593 -0.326181
-0.341827 -0.056044 -0.335518
-0.170282 0.073580 -0.465373
0.019676 0.142107 -0.552292
-0.020117 0.150090 -0.549841
-0.213899 0.089578 -0.400801
-0.222107 0.072081 -0.377935
-0.114643 0.200280 -0.498227
-0.002892 0.274935 -0.539441
-0.057737 -0.028554 -0.488779
-0.016433 -0.058110 -0.482236
-0.419865 -0.125308 -0.348939
-0.221392 -0.100408 -0.268540
-0.147584 -0.159826 -0.121299
-0.159136 -0.131451 -0.100138
-0.140722 -0.159888 -0.192498
-0.137901 -0.171406 -0.161766
-0.238048 0.023436 -0.251907
-0.064032 0.271321 -0.213435
-0.088950 0.261444 -0.202386
-0.061350 0.253690 -0.165372
0.004195 0.261693 -0.147771
-0.173013 -0.162402 -0.034925
-0.167478 -0.192660 -0.029589
0.134712 -0.180807 0.969000
0.126684 -0.116118 0.954826
0.086272 -0.105077 0.935038
0.129783 -0.040688 0.932533
0.205344 0.171215 0.653112
0.222735 0.176357 0.704014
0.268839 0.224967 0.651830
0.239724 0.227057 0.627563
0.035329 0.196079 0.524813
0.054425 0.188112 0.532989
0.062969 0.192237 0.515169
0.039523 0.180626 0.593055
0.113582 0.188231 0.602656
0.082665 0.176055 0.618673
0.117325 0.192537 0.524815
0.087780 0.186789 0.515065
0.226697 0.211827 0.405495
0.137274 0.195224 0.205449
0.159357 0.156284 0.224768
0.170276 0.182103 0.166254
0.185468 0.166601 0.199066
0.210455 0.172330 -0.025215
0.238032 0.180367 -0.029231
0.220553 0.164045 0.204845
0.245448 0.113148 0.485574
0.321619 -0.085845 0.757464
0.299165 -0.102318 0.812602
0.313542 -0.106775 0.776598
0.317249 -0.137937 0.763337
0.298544 -0.146546 0.809940
0.296740 -0.174556 0.798416
0.328251 -0.190000 0.680318
0.316865 -0.210460 0.706498
0.300632 -0.164171 0.721058
0.338144 -0.108519 0.683513
0.259085 0.071213 0.005351
0.261700 0.024390 0.006853
0.275719 -0.001443 0.250321
0.189387 -0.295492 0.040205
0.187431 -0.279999 0.001301
0.212449 -0.340954 0.433760
0.231333 -0.304144 0.425839
0.201046 -0.343534 0.378437
