0.251229 -0.137907 0.215184
0.171726 -0.356683 0.341730
0.138402 -0.450801 0.401991
0.273099 -0.036712 -0.364199
0.022386 0.012082 -0.510643
0.055568 0.170657 -0.610546
0.294632 -0.146498 -0.489712
0.256639 -0.160797 -0.412301
0.063265 0.260684 -0.436576
0.247515 0.043976 -0.175619
0.288279 0.032265 -0.261203
0.056431 0.250751 -0.143860
0.061778 0.212654 -0.090102
0.209949 -0.201001 -0.067692
-0.010940 -0.237219 -0.332949
0.028093 -0.266723 -0.302117
0.244686 0.188329 -0.342749
0.132848 0.260218 -0.476549
0.308786 -0.068012 -0.295496
0.343082 -0.052334 -0.313765
0.144930 0.005042 -0.471722
0.317168 -0.085191 -0.487187
0.244643 -0.078912 -0.473455
0.084290 -0.398948 0.230063
0.184148 -0.385946 0.479179
0.253660 -0.238035 0.449284
0.303933 -0.092394 0.126774
0.257761 -0.136135 0.468311
0.249518 -0.101516 0.507891
0.231160 -0.011509 0.487970
0.302311 0.099280 0.639865
0.273987 0.150345 0.431154
0.051400 0.196018 0.397666
0.026018 0.147582 0.454151
0.080850 0.155867 0.594632
0.141935 0.203181 0.620062
0.087586 0.072740 0.779150
0.098846 0.052615 0.775988
0.053067 0.056738 0.762928
0.071692 0.003980 0.853458
-0.220929 0.020753 -0.022570
-0.221353 0.100409 -0.177519
-0.239021 0.057932 -0.252976
-0.243015 0.023400 -0.197638
-0.038391 0.262541 -0.438164
-0.068259 0.268331 -0.404590
-0.071754 -0.152894 -0.398412
-0.112799 0.199100 -0.619145
-0.053408 0.233650 -0.629958
-0.036084 -0.081866 -0.512907
-0.395008 -0.128608 -0.453984
-0.064784 -0.394027 0.076494
-0.085442 -0.424304 0.055218
-0.137219 -0.384863 0.096424
-0.170450 -0.371708 0.136989
-0.214691 -0.285565 0.243688
-0.217810 -0.308459 0.301940
-0.239406 -0.139494 0.391073
-0.222037 -0.179657 0.418644
-0.272601 -0.021617 0.043750
-0.244701 0.022558 0.018031
-0.276472 -0.049145 0.099600
-0.293786 -0.013221 0.111658
-0.306137 -0.010167 0.667853
-0.271397 -0.031996 0.681708
-0.270471 0.014291 0.610308
-0.280511 -0.047219 0.721579
-0.275731 0.202531 0.535046
-0.243198 0.070012 -0.020446
-0.095401 0.176353 0.170141
-0.062450 0.193180 0.109058
-0.171356 0.167728 0.395999
-0.240279 -0.064055 0.786765
-0.044417 -0.068417 0.905028
-0.139140 -0.166673 0.956886
-0.098841 -0.082317 0.905058
-0.199922 0.150272 0.684376
-0.109074 0.099022 0.717782
-0.008534 0.113613 0.613050
-0.065548 0.129696 0.657154
-0.035551 0.142421 0.634449
-0.021323 0.191428 0.413598
-0.199940 0.196565 -0.083815
-0.308225 0.114870 0.040733
-0.225448 0.017607 0.490631
-0.212182 -0.337557 0.774579
-0.166254 -0.322726 0.804204
-0.190391 0.049368 -0.066157
-0.255864 -0.158375 0.170876
-0.241460 -0.158572 0.198871
-0.074054 -0.420812 0.305666
-0.083944 -0.418839 0.329186
-0.158228 -0.406124 0.405443
-0.007493 -0.432904 0.130184
0.002952 -0.415019 0.105945
-0.078403 -0.386755 0.130716
-0.218254 -0.153826 -0.372489
-0.139351 -0.195929 -0.382340
-0.134368 -0.235430 -0.186776
-0.241583 -0.044321 -0.279695
-0.212691 -0.064935 -0.214879
-0.245325 0.052707 -0.175739
-0.056445 -0.292021 -0.190326
-0.026819 -0.394186 -0.093318
0.091343 -0.062752 0.922593
0.238745 -0.051191 0.814505
0.065851 0.111993 0.649184
0.055731 0.086681 0.714115
0.001738 0.050273 0.776276
0.168261 0.089773 0.361841
0.217755 0.038330 0.240718
0.226914 0.043779 0.273753
0.162444 0.083399 0.334004
0.062767 -0.446501 0.707725
0.076936 -0.439685 0.681845
0.012510 -0.475764 0.755714
0.249634 -0.101429 0.287030
0.237833 0.011546 0.221819
0.240757 -0.021934 0.272203
0.222993 -0.011597 0.264948
0.252939 -0.142846 0.057630
0.278064 -0.157225 0.014805
0.212408 -0.257589 0.013612
0.253160 -0.086532 -0.379321
0.079355 0.175940 -0.617642
0.068024 0.155791 -0.564366
0.109793 0.211421 -0.574420
0.347372 -0.161129 -0.389562
0.162291 0.195600 -0.253343
0.216115 0.202151 -0.265247
0.148507 0.140821 -0.204492
0.114222 -0.349067 -0.055477
0.137184 -0.332294 -0.082411
0.109664 -0.299439 -0.146361
0.211325 -0.005034 -0.068950
0.193815 0.096808 -0.135765
0.116306 -0.239840 -0.239785
0.185001 0.234167 -0.320549
0.289455 0.105983 -0.318515
0.247789 0.149189 -0.371503
0.136529 -0.161466 -0.369100
0.417811 -0.142180 -0.355522
0.102618 -0.118639 -0.493908
0.026157 0.240646 -0.562979
0.217606 0.047910 -0.466852
0.397890 -0.102247 -0.379701
0.076425 -0.465541 0.364105
0.038047 -0.452480 0.335852
0.233712 -0.405805 0.583132
0.188436 -0.398033 0.534275
0.089669 -0.439987 0.589044
0.159119 -0.337609 0.100074
0.210463 -0.309858 0.069400
0.222455 -0.233114 0.109560
0.232354 -0.242370 0.115684
0.233469 -0.209417 0.192624
0.264802 -0.146676 0.195501
0.182515 -0.378919 0.748107
0.191491 -0.390213 0.719206
0.090490 -0.447497 0.723227
0.225144 0.023773 0.416575
0.203145 0.060282 0.411043
0.187805 0.083552 0.371686
0.161700 0.154790 0.220778
0.138120 0.138560 0.333969
0.073105 0.161544 0.245788
0.088181 0.159119 0.221349
0.221740 0.029164 0.789194
0.165670 0.050300 0.796441
0.172010 0.078807 0.809470
-0.017846 -0.383061 0.869308
0.225359 -0.324442 0.682020
0.262129 -0.309194 0.663537
0.233306 -0.296691 0.816625
-0.111031 -0.262807 -0.155285
-0.081660 -0.347110 -0.081165
-0.207966 0.202063 -0.183071
-0.232941 0.174570 -0.226204
-0.214960 0.199082 -0.459792
-0.230230 0.194638 -0.426478
-0.286932 0.100108 -0.349291
-0.293823 0.092586 -0.298355
-0.195108 -0.121194 -0.249756
-0.319228 -0.094540 -0.314023
-0.268841 -0.186195 -0.344125
-0.144170 -0.026298 -0.525141
-0.111866 -0.091226 -0.462930
-0.112483 0.205590 -0.548084
-0.219658 0.034547 -0.428287
-0.082077 0.138750 -0.553572
-0.046224 -0.378544 -0.010316
-0.121357 -0.409045 0.259233
-0.129716 -0.393141 0.251473
-0.150708 -0.365733 0.286706
-0.195347 -0.292506 -0.020631
-0.271371 -0.129058 0.000924
-0.231229 -0.008801 0.302407
-0.020507 -0.453339 0.700132
-0.221985 0.060725 0.331195
-0.193879 0.083591 0.265085
-0.191582 0.096741 0.228173
-0.116057 0.133785 0.432570
-0.150887 0.159867 0.374908
-0.097088 0.168201 0.366380
-0.041648 0.182711 0.339796
-0.258414 0.062068 0.699280
-0.163299 0.013478 0.841012
-0.148479 -0.025052 0.854780
-0.216356 -0.003375 0.783614
-0.236211 0.056831 0.768775
-0.192798 -0.325866 0.811190
-0.227249 -0.306136 0.691456
-0.290273 -0.281279 0.683684
-0.265104 -0.282458 0.680378
-0.145072 0.194418 0.556195
-0.165392 -0.242467 0.938400
-0.191316 -0.297621 0.855983
-0.169542 -0.312786 0.834522
-0.212914 -0.249815 0.898867
-0.117692 0.095164 0.734159
-0.222988 0.107986 0.717415
-0.113944 0.167703 0.511907
-0.069528 0.205784 0.077200
-0.200862 0.173281 -0.048088
-0.339486 0.173652 0.465369
-0.277403 0.087779 0.490930
-0.261621 -0.153298 0.268252
-0.251680 -0.134498 0.237135
-0.244712 -0.209249 0.344909
-0.198798 -0.242440 0.018285
-0.286809 -0.284534 0.586273
-0.248434 -0.326184 0.600493
-0.232558 -0.380198 0.536875
0.015198 -0.468192 0.454749
-0.069070 -0.477388 0.497366
-0.217935 -0.062504 -0.434605
-0.242625 0.104410 -0.444781
-0.066872 0.251141 -0.562762
-0.123119 0.238442 -0.508895
-0.186733 -0.143060 -0.468726
-0.162705 -0.120402 -0.452410
-0.345017 -0.170380 -0.393079
-0.364900 -0.105010 -0.325194
-0.029806 0.271238 -0.327985
-0.012447 0.260473 -0.313785
-0.130772 0.255227 -0.264827
-0.076604 0.258698 -0.258044
-0.204417 -0.008303 -0.122641
-0.195018 -0.101287 -0.181018
0.118398 0.173250 0.542170
0.149242 0.209327 0.577745
0.095185 -0.232552 0.941018
0.195930 -0.278596 0.824122
0.209008 -0.248995 0.828603
0.186661 -0.298587 0.863663
0.185136 0.090558 0.760418
0.089630 0.170162 0.514783
0.143410 0.211029 0.504476
0.143507 0.214365 0.521690
0.035132 0.213694 0.086375
0.191835 0.156457 -0.042675
0.328391 0.204173 0.502952
0.318884 -0.138059 0.580174
0.262989 0.020068 0.546145
0.249658 -0.048414 -0.005312
0.217735 -0.139579 -0.003134
0.243742 -0.207860 0.401985
0.238753 -0.226149 0.371672
0.235587 -0.291413 0.296497
0.172039 -0.348354 0.228432
0.143529 -0.389564 0.068059
0.079353 -0.427496 0.158636
0.440105 -0.141980 -0.395080
0.232098 -0.088646 -0.461443
0.029397 -0.055456 -0.514295
0.019281 -0.029594 -0.515707
0.232622 0.218273 -0.473001
0.398872 -0.131299 -0.402492
0.387003 -0.150211 -0.405643
0.228166 -0.163627 -0.305147
0.114943 -0.247784 -0.177861
0.220884 -0.041953 -0.194019
0.260818 -0.069610 -0.258532
0.253957 0.165936 -0.289586
0.020029 -0.360689 -0.105259
0.136256 0.182142 -0.115304
0.149403 0.119900 -0.117015
0.187119 -0.081110 -0.155140
0.084120 0.250650 -0.259724
0.100302 0.251342 -0.318739
0.099152 0.287084 -0.321442
0.105694 0.262656 -0.447432
0.204828 -0.114722 -0.296132
0.197224 -0.149196 -0.240955
0.152735 -0.124445 -0.434997
0.062149 0.262784 -0.522525
0.019844 0.222859 -0.600144
0.123776 -0.013277 -0.493668
0.082734 -0.435243 0.474980
0.067572 -0.446628 0.488772
0.261921 -0.333552 0.580144
0.232935 -0.329065 0.616749
0.267538 -0.270442 0.592037
0.236197 -0.303131 0.599288
0.251230 -0.270504 0.536314
0.268465 -0.178555 0.313361
0.233511 -0.216977 0.218937
0.259972 -0.203518 0.255861
0.270164 -0.072982 0.205022
0.292509 0.106371 0.507535
0.253646 0.138413 0.001644
0.212366 0.103349 -0.034781
0.296190 0.191886 0.033383
0.068538 0.206861 0.123150
0.011878 0.203924 0.163392
0.286974 0.182744 0.447025
0.265345 0.171008 0.615337
0.242934 -0.122532 0.808695
0.201758 -0.189535 0.892076
0.168587 0.241516 -0.477777
-0.173255 0.020927 -0.089059
-0.209045 -0.028964 -0.116706
-0.189237 0.097152 -0.082025
-0.096419 -0.250095 -0.266814
-0.083080 -0.305190 -0.156919
-0.131161 0.249205 -0.358811
-0.284982 0.104375 -0.391292
-0.110117 -0.162900 -0.425095
-0.354637 -0.172712 -0.412908
-0.260518 -0.178685 -0.437621
-0.245563 -0.139837 -0.439463
-0.043165 -0.109661 -0.496762
-0.035977 0.280942 -0.505554
-0.158729 0.117199 -0.482223
-0.186669 -0.108206 -0.466643
-0.057231 -0.493228 0.598617
0.009373 -0.465390 0.553750
-0.115476 -0.470672 0.618554
-0.206716 -0.283710 0.405803
-0.218720 -0.362800 0.501837
-0.314337 -0.189179 0.538967
-0.301661 -0.177698 0.571994
-0.286207 -0.205557 0.524311
-0.291390 -0.247673 0.625861
-0.280401 0.015339 0.590593
-0.295782 -0.110357 0.564895
-0.295953 -0.101113 0.549409
-0.301904 -0.099745 0.552893
-0.283022 0.222172 0.517324
-0.254489 0.098701 0.184230
-0.271443 0.101952 0.133388
-0.153254 0.157101 0.188590
-0.057543 0.147150 0.590018
-0.266116 0.146177 0.618833
-0.035905 0.045850 0.756462
-0.053538 0.055629 0.816873
-0.035445 -0.361529 0.944045
-0.217646 -0.158986 0.825702
-0.240805 -0.210715 0.850568
-0.231806 -0.116683 0.846931
-0.095656 0.188171 0.563407
-0.221751 0.235742 0.107626
-0.267017 0.153841 -0.012605
-0.158858 0.121720 0.310012
-0.131663 0.105788 0.331218
-0.178768 0.112969 0.386429
-0.225124 0.032677 0.387828
-0.299664 0.092106 0.560237
-0.300804 0.023532 0.570851
-0.199420 -0.003361 0.413000
-0.298692 -0.146196 0.103712
-0.280211 -0.140806 0.146672
-0.239136 -0.281910 0.068447
-0.253216 -0.237422 0.100504
-0.155780 -0.353221 0.052534
-0.218883 -0.296239 0.159505
-0.234430 -0.254774 0.123860
-0.239049 -0.233350 0.128255
-0.157731 -0.436590 0.599707
-0.112477 -0.423214 0.586645
-0.196317 -0.404156 0.588522
-0.173580 -0.385592 0.637978
-0.023885 -0.445133 0.335938
-0.066002 -0.434784 0.390670
-0.355391 -0.071895 -0.364972
-0.026113 0.128684 -0.594199
-0.270415 0.066901 -0.414042
-0.255160 0.067549 -0.374736
-0.149370 -0.244786 -0.166420
-0.199013 -0.132748 -0.157902
-0.219632 0.168898 -0.399001
-0.038935 0.252919 -0.253139
0.006145 0.240654 -0.184201
-0.207750 -0.215736 -0.058681
0.079324 -0.236784 0.927567
0.065832 -0.249481 0.952753
0.020675 -0.118788 0.927212
0.207523 0.123778 0.710626
0.241002 0.134076 0.677147
0.104439 0.177845 0.472947
0.055141 0.160875 0.461872
0.052983 0.124474 0.566719
0.212085 0.202829 -0.093159
0.256876 0.150843 0.106403
0.264362 0.142957 0.120245
0.241943 0.176932 0.106160
0.216908 0.026499 0.482586
0.284433 -0.115553 0.702395
0.286131 -0.217569 0.758951
0.251875 -0.235103 0.740291
0.229809 -0.288870 0.388570
0.421765 -0.137575 -0.382270
0.286947 0.040227 -0.355183
0.316458 -0.024445 -0.320791
0.005685 0.066252 -0.557362
0.203430 0.134139 -0.479494
0.056489 -0.229258 -0.356362
0.024959 -0.154798 -0.452720
0.297624 -0.009823 -0.279847
0.301740 0.010748 -0.285087
0.052368 0.283187 -0.339934
0.276123 0.146147 -0.260259
0.263731 0.095311 -0.259390
0.176407 0.220564 -0.234654
0.122571 0.201871 -0.185897
0.083028 0.208592 -0.072613
0.162967 -0.233990 -0.122466
0.079010 0.244949 -0.193831
0.263167 0.165638 -0.404822
0.181341 -0.180051 -0.144064
0.273699 -0.174806 -0.401788
0.342938 -0.151937 -0.451190
0.386223 -0.144313 -0.431650
0.056892 -0.113430 -0.471732
0.058426 0.241576 -0.485314
0.237622 -0.012927 -0.439906
0.171567 -0.104511 -0.457939
0.088472 -0.471211 0.614677
0.066122 -0.450095 0.564447
0.271005 -0.310364 0.510827
0.229715 -0.339739 0.448176
0.204390 -0.379453 0.434947
0.310446 -0.196946 0.637037
0.310491 -0.200374 0.617343
0.301995 -0.224230 0.504557
0.281757 -0.185098 0.561041
0.278474 -0.175849 0.510576
0.234853 -0.089005 0.411610
0.207183 -0.026964 0.420041
0.227079 0.028439 0.381017
0.289928 0.031886 0.543734
0.242167 0.035739 0.219844
0.247862 0.078926 0.154513
0.215048 0.112715 0.425622
0.223680 0.153022 0.415186
0.104875 0.143230 0.654871
0.257309 0.230074 0.590893
0.097160 -0.377006 0.798931
0.132035 -0.406403 0.798605
0.109648 -0.284723 0.910241
-0.233109 -0.096930 -0.057273
-0.192373 -0.109783 -0.121827
-0.221218 -0.066809 -0.106773
-0.202290 -0.065041 -0.059897
-0.216559 0.207823 -0.359464
-0.093026 0.276570 -0.409702
-0.201344 -0.154875 -0.188417
-0.242827 -0.022908 -0.267323
-0.307311 -0.001006 -0.283868
-0.377800 -0.039662 -0.347500
-0.421178 -0.127621 -0.455360
-0.136003 0.164083 -0.511816
-0.017374 0.103046 -0.573198
-0.277219 -0.045263 -0.385335
-0.152333 -0.350151 -0.037943
-0.230427 -0.245790 -0.026293
-0.263176 -0.110418 0.228619
-0.268032 0.006845 -0.029664
-0.283151 -0.189683 0.724543
-0.284467 -0.124437 0.698520
-0.291966 -0.118609 0.740249
-0.209510 0.189269 0.160572
-0.115144 0.188799 0.091499
-0.126038 -0.407923 0.807617
-0.142363 -0.347066 0.833109
-0.085092 -0.333545 0.886778
-0.071576 -0.390091 0.849394
-0.024998 -0.312157 0.919974
-0.093663 0.205601 -0.023186
0.021340 -0.216452 0.931223
-0.090224 -0.133596 0.946907
-0.094819 -0.172590 0.961163
-0.050334 -0.192263 0.960417
-0.055423 -0.217695 0.949647
-0.109875 -0.069290 0.897243
-0.187859 -0.052941 0.905737
-0.121735 -0.076036 0.920205
-0.213731 -0.084352 0.884498
-0.197565 -0.118014 0.912363
-0.164797 -0.174501 0.897145
-0.146500 -0.172784 0.944004
-0.289902 0.210737 0.564617
-0.259684 0.218932 0.560505
-0.285181 0.158566 0.415732
-0.118091 0.193365 0.418664
-0.090864 0.195318 0.023436
-0.111408 0.198967 -0.014187
-0.321859 0.216908 -0.014141
-0.286434 0.165641 0.047199
-0.231472 0.135750 0.439464
-0.215590 0.093053 0.463841
-0.269839 0.084389 0.471158
-0.244289 0.080124 0.012275
-0.262408 0.022303 0.129635
-0.278630 0.080277 0.107620
-0.263582 0.091809 0.060921
-0.291495 0.105652 0.592947
-0.292466 0.113284 0.643399
-0.278865 0.058230 0.652245
-0.262442 0.102992 0.702070
-0.301407 0.092952 0.656485
-0.205281 0.013366 0.471691
-0.252846 -0.051961 0.449861
-0.279508 -0.086033 0.469403
-0.280701 -0.139318 0.493398
-0.248958 -0.063148 0.511787
-0.267475 -0.012475 0.528511
-0.282340 -0.073902 0.101434
-0.304260 -0.065702 0.143181
-0.278139 -0.062730 0.155564
-0.286025 -0.091848 0.188114
-0.240988 -0.177263 0.423282
-0.269287 -0.161349 0.463316
-0.280017 -0.231594 0.468145
-0.308224 -0.159313 0.474616
-0.287066 -0.189776 0.499023
-0.237056 -0.192858 -0.031416
-0.094008 -0.456377 0.529649
-0.124831 -0.454252 0.539124
-0.148044 -0.425653 0.490724
-0.165262 -0.438559 0.479715
-0.188003 -0.398206 0.465104
-0.166615 -0.405474 0.439140
0.006081 -0.460738 0.322111
-0.020254 -0.443204 0.274352
-0.049069 -0.424724 0.282577
-0.079756 -0.449303 0.246179
-0.043023 -0.404137 0.215693
-0.297880 -0.078444 -0.497372
-0.308690 -0.080959 -0.433563
-0.279378 -0.083394 -0.443689
-0.201765 -0.069248 -0.420774
-0.095720 0.100374 -0.529230
-0.080906 0.119193 -0.522707
-0.156673 -0.005298 -0.467622
-0.181003 -0.041535 -0.475648
-0.206074 0.008643 -0.455906
-0.198131 -0.084694 -0.414053
-0.197258 0.082342 -0.469965
-0.094299 0.251760 -0.568350
-0.125506 0.227358 -0.508560
-0.452484 -0.125835 -0.432649
-0.391166 -0.165546 -0.410897
-0.008146 -0.140165 -0.427490
-0.032922 -0.179751 -0.414017
-0.003573 -0.229190 -0.358843
-0.053665 -0.204074 -0.351471
-0.072411 -0.155287 -0.442507
-0.323513 -0.011011 -0.319755
-0.111917 0.253596 -0.397765
-0.070296 0.281779 -0.333853
-0.011434 0.244325 -0.346136
-0.269403 0.098401 -0.254987
-0.291314 0.125078 -0.289528
-0.242783 0.107111 -0.202538
-0.032652 0.181933 -0.077335
-0.035890 0.236563 0.002902
-0.039863 0.210165 -0.040841
-0.016959 0.241756 -0.012074
0.106648 0.176202 -0.023346
0.030253 -0.142311 0.960905
0.036371 -0.150494 0.926146
0.048509 -0.218927 0.935781
0.202023 -0.049910 0.856409
0.188378 -0.082189 0.879607
0.141137 -0.044063 0.892849
0.145012 -0.067918 0.875087
0.128357 -0.144083 0.960415
0.108771 -0.154548 0.920435
0.156856 -0.145062 0.921702
0.292963 0.204300 0.567248
0.265245 0.252339 0.577989
0.272301 0.161806 0.419656
0.138286 0.136176 0.448209
0.119292 0.189025 0.024322
0.139676 0.205026 0.084598
0.138268 0.205450 0.041358
0.114651 0.136064 -0.042135
0.301370 0.134779 0.053459
0.220193 0.063807 0.478819
0.281115 0.057126 0.500968
0.250413 0.020299 0.504794
0.284384 -0.070881 0.725672
0.281389 -0.109393 0.735524
0.294175 -0.077657 0.689045
0.295624 -0.108195 0.657055
0.303634 -0.050030 0.708900
0.312632 -0.129049 0.718883
0.274720 0.014541 0.684078
0.307830 -0.079772 0.078602
0.303919 -0.048485 0.038546
0.268372 -0.004288 0.032106
0.274408 -0.054654 0.000484
0.242839 0.031038 0.011527
0.249823 -0.000240 0.008629
0.299393 0.050780 0.104868
0.252229 -0.211027 0.182262
0.286778 -0.133346 0.178760
0.248805 -0.187135 0.072771
0.245321 -0.251935 0.039696
0.156778 -0.429686 0.388093
0.163240 -0.412249 0.380711
0.107464 -0.437576 0.417562
0.115475 -0.437866 0.321538
0.107376 -0.419315 0.359604
0.131016 -0.404977 0.320350
0.088048 -0.421553 0.214481
0.050229 -0.421571 0.175099
0.064863 -0.429791 0.120740
-0.000208 -0.426116 0.166393
0.031422 -0.387979 0.078902
0.032878 -0.408029 0.097908
0.049379 -0.406171 0.101056
0.354966 -0.111048 -0.453862
0.347550 -0.090737 -0.401726
0.268713 -0.064845 -0.367185
0.143719 0.057042 -0.488673
0.056030 0.017248 -0.497093
0.196005 0.083269 -0.443099
0.217512 0.141282 -0.476238
0.051037 0.242177 -0.591829
0.098979 0.240029 -0.507901
0.236021 -0.154154 -0.478904
0.276815 -0.127630 -0.499911
0.348671 -0.108045 -0.513177
0.172172 -0.180492 -0.408807
0.210373 -0.188254 -0.406707
0.273062 -0.193312 -0.380351
0.230369 -0.171611 -0.370867
0.198688 -0.161006 -0.358788
0.128140 -0.103316 -0.448189
0.100984 -0.121977 -0.429596
0.169711 -0.169243 -0.212655
0.172103 -0.206248 -0.268619
0.083112 0.265917 -0.411143
0.071298 0.249943 -0.392737
0.003615 0.251492 -0.420648
0.223335 0.018238 -0.224081
0.275696 0.002455 -0.263893
0.247838 0.033206 -0.250807
0.234634 0.093246 -0.226335
0.251286 0.071519 -0.238627
0.218505 0.017741 -0.182137
0.226484 0.036870 -0.173890
0.072067 0.195753 -0.107179
0.087766 0.210004 -0.143540
0.141297 -0.258768 -0.090075
0.162030 -0.241581 -0.079363
0.146485 -0.261636 -0.077931
0.173954 -0.250361 -0.149141
0.193624 -0.141145 -0.037886
0.210842 -0.012577 -0.053926
0.198961 -0.040724 -0.056944
0.198935 -0.113551 -0.088609
0.202579 -0.088875 -0.138890
0.193273 -0.069698 -0.096107
0.199781 -0.080144 -0.162800
-0.003553 -0.286483 -0.229312
0.029368 -0.308920 -0.241543
0.032088 -0.321042 -0.234008
0.027188 -0.268089 -0.327234
0.079008 -0.272826 -0.251573
0.215096 0.207686 -0.383572
0.179398 -0.164344 -0.235661
0.315284 -0.036549 -0.274051
0.321946 -0.103428 -0.318128
0.369881 -0.104159 -0.300446
0.352561 -0.152160 -0.482040
0.009661 0.242745 -0.554357
0.004373 0.275092 -0.518201
0.081890 0.208666 -0.617698
0.133779 0.150063 -0.512138
0.164219 0.173596 -0.497147
0.248892 0.086685 -0.369807
0.274538 0.131230 -0.414254
0.145648 -0.023678 -0.450784
0.182224 -0.037257 -0.440800
0.087109 0.119456 -0.523073
0.219888 -0.050501 -0.424586
0.235668 -0.052288 -0.403241
0.070550 -0.445534 0.277906
0.023925 -0.456158 0.257984
0.021751 -0.415896 0.290725
0.042975 -0.432466 0.220418
0.187500 -0.381631 0.507948
0.157223 -0.411244 0.499959
0.130432 -0.444535 0.505750
0.101836 -0.427904 0.515114
0.120731 -0.459764 0.432703
0.085373 -0.430553 0.468773
0.146215 -0.436739 0.450421
0.165957 -0.386942 0.416842
0.217218 -0.198000 -0.012126
0.230939 -0.182873 -0.030457
0.254566 -0.248301 0.405551
0.233885 -0.258450 0.412491
0.245922 -0.258249 0.414650
0.268846 -0.193563 0.462014
0.277846 -0.152191 0.446795
0.259785 -0.263157 0.525978
0.284265 -0.195880 0.450436
0.299222 -0.055241 0.109299
0.272368 -0.018635 0.150699
0.314842 -0.015136 0.132666
0.243145 -0.129478 0.434915
0.257865 -0.065422 0.441460
0.260382 -0.094394 0.463559
0.259969 -0.036219 0.465057
0.236318 0.032612 0.523471
0.253823 -0.040442 0.519571
0.308479 0.051577 0.627024
0.290399 0.073506 0.573442
0.302284 0.146579 0.609356
0.254538 0.088763 0.022307
0.272429 0.078029 0.017046
0.267294 0.094472 0.000557
0.267743 0.084516 0.061512
0.260100 0.098422 0.132626
0.294818 0.070248 0.077723
0.227218 0.084920 0.433707
0.280639 0.167717 0.438467
0.270010 0.142683 0.420070
0.254630 0.108214 0.484089
0.163994 0.183800 -0.092614
0.055108 0.181376 0.359677
0.012185 0.163940 0.422168
-0.014863 0.171909 0.427505
0.037546 0.149924 0.445813
0.101860 0.141743 0.409562
0.270500 0.149500 0.383675
0.132334 0.174716 0.674368
0.152471 0.184322 0.653686
0.011386 0.092854 0.788283
0.011267 0.049882 0.796100
0.058231 0.023743 0.781492
0.026936 0.021406 0.838511
0.138762 -0.028867 0.878070
0.132839 -0.002148 0.861394
0.105939 -0.016637 0.846257
0.066198 0.010121 0.863014
0.116049 0.061559 0.789418
0.098806 0.025034 0.830101
0.071951 0.018217 0.811509
-0.003738 -0.411317 0.853411
0.052304 -0.439921 0.804718
0.020092 -0.464646 0.788456
0.070040 -0.408610 0.858045
0.051277 -0.330223 0.926781
-0.001014 0.222545 -0.083967
-0.020527 0.202126 -0.138772
-0.027464 0.214118 -0.146048
-0.073301 0.207034 -0.180748
-0.087628 0.211738 -0.142113
-0.056498 0.215246 -0.142948
-0.079192 0.198854 -0.098047
-0.266037 0.011399 -0.257580
-0.218398 0.049784 -0.187564
-0.277862 0.017266 -0.244222
-0.251104 0.063709 -0.260928
-0.092855 0.284661 -0.417939
-0.011500 0.271384 -0.411631
-0.146423 -0.167280 -0.249797
-0.050043 -0.205997 -0.368150
-0.118341 -0.177533 -0.414071
-0.241240 -0.186749 -0.344986
-0.268545 -0.154920 -0.349335
-0.237731 -0.125110 -0.281370
-0.402396 -0.146014 -0.434361
-0.392107 -0.178471 -0.427906
-0.181047 0.202673 -0.493520
-0.193210 0.132877 -0.465432
-0.212872 0.163272 -0.470544
0.021207 -0.054653 -0.537483
-0.040282 -0.056624 -0.539768
-0.099449 -0.050246 -0.506596
-0.083102 -0.010720 -0.525216
-0.161115 -0.055892 -0.481751
-0.365477 -0.115957 -0.446828
-0.099844 -0.408982 0.188383
-0.078581 -0.380933 0.135325
-0.131751 -0.391312 0.163332
-0.131635 -0.363622 0.096704
-0.112241 -0.373798 0.093996
-0.164196 -0.319023 0.203282
-0.164361 -0.322356 0.243216
-0.216378 -0.320752 0.233765
-0.153063 -0.374874 0.286803
-0.226551 -0.257345 0.316055
-0.225647 -0.258718 0.333878
-0.226941 -0.319055 0.350090
-0.189272 -0.296593 0.282191
-0.242538 -0.215444 0.335286
-0.230875 -0.242634 0.357575
-0.215155 -0.256301 0.406663
-0.246849 -0.128260 0.413653
-0.244766 -0.158763 0.397956
-0.250409 -0.145393 0.373198
-0.278362 -0.091998 0.025661
-0.274223 -0.062023 0.021349
-0.303651 -0.061909 0.042011
-0.275761 -0.082429 0.054153
-0.280232 0.036556 0.116489
-0.312134 0.023935 0.078301
-0.243904 0.070534 -0.007213
-0.279304 -0.050464 0.656797
-0.295491 -0.080792 0.681898
-0.308466 -0.105818 0.739762
-0.242196 0.023193 0.740722
-0.298297 -0.019226 0.695145
-0.305903 0.165052 0.598409
-0.296476 0.170222 0.560701
-0.252752 0.064522 -0.015810
-0.240138 0.073552 0.010286
0.006552 0.190560 0.211206
-0.037781 0.184696 0.152385
-0.067706 0.162592 0.138158
-0.074436 0.169263 0.134996
-0.291720 0.198043 0.445730
-0.154215 0.138931 0.686449
-0.120473 0.134504 0.639451
-0.215634 -0.046693 0.846784
-0.196391 -0.079682 0.868630
-0.269754 -0.004995 0.783914
-0.253517 -0.004684 0.815943
-0.231427 0.010765 0.784300
-0.273554 -0.022132 0.756368
-0.286309 -0.063929 0.771542
-0.018138 -0.035545 0.891768
-0.019639 -0.044397 0.892317
-0.080384 -0.037326 0.893768
-0.080101 -0.082862 0.933259
-0.169580 -0.207276 0.904127
-0.108777 -0.231125 0.930689
-0.145943 0.228019 -0.031639
0.041473 -0.293173 0.956066
-0.179752 0.227424 -0.502445
-0.138265 0.238433 -0.480228
-0.017691 -0.363715 0.911660
-0.131339 -0.118180 0.952143
-0.094018 -0.129463 0.954064
-0.048766 -0.120096 0.925964
-0.035048 -0.148401 0.959848
-0.252993 0.181679 0.649642
-0.198739 0.185879 0.674755
-0.228005 0.136790 0.658312
-0.019651 0.090660 0.741805
-0.049916 0.062170 0.750017
-0.040842 0.085841 0.688514
-0.017839 0.111278 0.692787
-0.034778 0.084289 0.723274
-0.069030 0.181251 0.603024
-0.109323 0.117820 0.651139
-0.094340 0.151494 0.654183
-0.091831 0.152538 0.629359
-0.081642 0.088369 0.723491
-0.003959 0.207582 0.369197
-0.044371 0.204287 0.403979
-0.009158 0.183259 0.402037
-0.084103 0.161582 0.402442
-0.075197 0.181015 0.445822
-0.072251 0.161700 0.427443
-0.040145 0.171565 0.431722
-0.170769 0.196744 -0.060984
-0.135972 0.189247 -0.087364
-0.157216 0.136686 -0.071824
-0.300453 0.148459 0.096409
-0.275727 0.161236 0.043030
-0.285222 0.132255 0.031588
-0.293793 0.105343 0.121334
-0.225154 0.070004 0.508096
-0.241350 0.038150 0.504422
-0.269505 0.072900 0.497188
-0.085094 -0.412360 0.757059
-0.085602 -0.425094 0.749365
-0.094964 -0.431744 0.741399
-0.156071 -0.394523 0.782814
-0.173667 -0.349923 0.762398
-0.150523 -0.391458 0.734008
-0.186429 -0.350283 0.727258
-0.146306 -0.411023 0.692129
-0.150897 -0.408331 0.677690
-0.235434 -0.213101 0.140371
-0.235791 -0.193819 0.185863
-0.238815 -0.233665 0.204554
-0.246546 -0.166665 0.202402
-0.236814 -0.197556 0.003799
-0.120566 -0.434859 0.385488
-0.104891 -0.441288 0.391064
-0.155396 -0.394805 0.398521
-0.141983 -0.387109 0.370227
-0.140345 -0.418204 0.307439
0.002078 -0.448017 0.192391
-0.033993 -0.449190 0.121896
-0.056191 -0.425723 0.211252
-0.032703 -0.440334 0.176117
-0.030981 -0.432371 0.080167
-0.085035 -0.384597 0.106819
-0.035516 -0.411735 0.080010
-0.361397 -0.096234 -0.433032
-0.253079 -0.051274 -0.378193
-0.282018 -0.059210 -0.390256
-0.121105 0.031209 -0.503913
-0.043558 0.040611 -0.538018
0.002569 -0.026808 -0.524861
-0.062613 -0.005506 -0.502150
-0.042177 0.056412 -0.542825
-0.216798 0.100840 -0.433388
-0.122269 0.116295 -0.548085
-0.123844 0.207026 -0.494168
-0.331213 -0.091157 -0.482026
-0.260913 -0.147813 -0.469534
-0.320769 -0.119814 -0.491567
-0.209233 -0.165242 -0.425807
-0.172821 -0.181573 -0.404296
-0.170490 -0.168648 -0.410524
-0.175388 -0.173256 -0.334583
-0.193792 -0.158123 -0.360714
-0.237409 -0.169613 -0.332412
-0.160622 -0.197428 -0.239515
-0.258508 -0.064522 -0.282387
-0.197343 -0.113402 -0.220747
-0.224864 -0.060682 -0.234105
-0.171997 0.226500 -0.451508
-0.170619 0.249633 -0.406909
-0.115238 0.283546 -0.351553
-0.149421 0.269492 -0.382759
-0.121004 0.264735 -0.401531
-0.276614 0.193037 -0.326237
-0.236860 0.204931 -0.275124
-0.219284 0.203977 -0.289402
-0.209242 -0.014335 -0.186977
-0.235648 0.023489 -0.170661
-0.005039 -0.326620 -0.135970
-0.003132 -0.306800 -0.211357
-0.009323 -0.329754 -0.108179
-0.077955 -0.324313 -0.102434
-0.060493 -0.330830 -0.138518
0.070117 -0.312919 0.927677
0.125694 -0.306304 0.926520
0.117583 -0.362628 0.902203
0.029956 -0.040224 0.896047
0.066815 -0.075180 0.901847
0.030734 -0.069162 0.916656
0.029836 -0.130546 0.940448
-0.008109 -0.088007 0.917490
0.261369 0.033078 0.780562
0.260356 0.006880 0.775268
0.236612 -0.016179 0.801148
0.239540 -0.087897 0.824381
0.281789 -0.063444 0.785430
0.263324 -0.022457 0.786553
0.246800 -0.019470 0.760793
0.267184 -0.067653 0.746853
-0.001933 0.167078 0.622894
0.030525 0.133565 0.668742
0.046660 0.138027 0.631513
-0.012130 0.108075 0.726565
0.023219 0.124818 0.681323
0.064176 0.082282 0.713204
0.084049 0.119510 0.712253
0.251118 0.222479 0.041353
0.239622 0.218617 0.071623
0.306762 0.233810 0.002239
0.096205 0.148568 0.354327
0.150441 0.109351 0.362512
0.102885 0.137250 0.377301
0.144614 0.118187 0.408669
0.149482 0.110042 0.420907
0.211352 0.118980 0.187562
0.189655 0.087151 0.230263
0.197732 0.100943 0.244713
0.193027 0.083618 0.284544
0.245854 0.019855 0.285046
0.234611 0.014783 0.342550
0.225135 0.051635 0.319586
0.229887 0.036104 0.303263
0.080650 -0.413650 0.749801
0.053824 -0.473701 0.745377
0.020038 -0.458913 0.722912
0.029494 -0.425937 0.764713
0.033027 -0.445779 0.663880
0.241784 -0.075169 0.307426
0.236662 -0.058267 0.259890
0.237692 -0.006407 0.287107
0.240042 -0.023543 0.295156
0.239920 -0.070022 0.312803
0.258346 -0.149540 0.056058
0.280189 -0.179653 0.049038
0.282119 -0.165813 0.036508
0.267705 -0.070169 0.023460
0.264323 -0.079199 0.032080
0.298059 -0.123914 0.090884
0.167172 -0.234013 -0.030699
0.185354 -0.217450 -0.031396
0.222034 -0.287968 0.358599
0.191666 -0.293332 0.327429
0.121046 -0.412837 0.279093
0.095255 -0.420048 0.312793
0.081367 -0.421751 0.238056
0.106615 -0.387936 0.245699
0.113310 -0.392515 0.197445
0.040018 -0.414287 -0.002139
0.014076 -0.382668 -0.048754
0.014329 -0.368220 -0.031191
0.033741 -0.391966 -0.054728
0.054655 -0.367048 -0.055309
0.302024 -0.082355 -0.411862
0.325903 -0.054826 -0.346302
0.234360 0.046119 -0.441142
0.103869 0.165179 -0.601906
0.061848 0.112371 -0.558841
0.226553 0.060018 -0.409171
0.098202 0.198030 -0.542808
0.119690 0.178457 -0.547170
0.070940 0.257937 -0.544357
0.138612 -0.092371 -0.471992
0.143665 -0.024982 -0.500146
0.319923 -0.174126 -0.340297
0.263282 -0.106147 -0.287645
0.276434 -0.046065 -0.263098
0.216702 -0.142442 -0.158147
0.173031 -0.157882 -0.203793
0.279615 0.064557 -0.310509
0.244464 0.028166 -0.340258
0.253375 0.077509 -0.365049
0.300101 0.111727 -0.330520
0.256206 0.194012 -0.439007
0.180187 0.246416 -0.451131
0.213382 0.215951 -0.393094
0.238987 0.197405 -0.229434
0.128076 0.234723 -0.296026
0.169366 0.205213 -0.269116
0.133295 0.219979 -0.237019
0.224459 0.100751 -0.190557
0.224202 0.136694 -0.173968
0.075061 -0.348875 -0.100749
0.072681 -0.348772 -0.089836
0.107623 -0.309484 -0.111289
0.139648 -0.277985 -0.122477
0.135272 -0.255639 -0.128388
0.146946 -0.268184 -0.133243
0.148947 -0.310283 -0.101780
0.198826 0.070040 -0.048216
0.206166 0.062505 -0.102663
0.173606 0.024485 -0.066850
0.213304 0.010668 -0.122657
0.215512 0.042450 -0.139883
0.069531 -0.276261 -0.190014
0.076115 -0.286922 -0.222664
0.090597 -0.236356 -0.260512
0.086329 -0.234905 -0.316156
0.095749 -0.231118 -0.315843
0.147413 -0.224382 -0.245430
0.200823 0.224187 -0.318325
0.221613 0.202537 -0.350012
0.135071 0.272348 -0.347435
0.158325 0.231347 -0.326874
0.273782 0.157391 -0.352201
0.119967 -0.223544 -0.372774
0.133360 -0.211586 -0.343378
0.107259 -0.159099 -0.421239
0.006320 -0.113690 -0.499228
0.050312 -0.093798 -0.534334
-0.006151 0.260627 -0.561179
0.106927 0.127981 -0.522487
0.246596 0.051640 -0.393595
0.254134 0.080149 -0.405621
0.012805 0.138419 -0.588618
0.063459 0.158124 -0.585882
0.352839 -0.068036 -0.360430
0.094864 -0.463123 0.374821
0.080084 -0.456772 0.402739
0.020490 -0.462160 0.419704
0.023672 -0.454494 0.325352
0.020067 -0.439019 0.337749
0.074307 -0.436238 0.280036
0.200344 -0.377088 0.604013
0.195549 -0.378954 0.658653
0.203470 -0.411900 0.601549
0.145239 -0.417275 0.620908
0.115631 -0.407262 0.665127
0.131571 -0.428541 0.571110
0.173893 -0.406855 0.563724
0.187272 -0.426284 0.573272
0.155810 -0.374675 0.177791
0.179485 -0.355183 0.212738
0.205310 -0.331665 0.166956
0.165820 -0.326223 0.106237
0.191082 -0.315457 0.128822
0.221698 -0.278289 0.045124
0.213376 -0.289603 0.109968
0.223657 -0.264833 0.170470
0.176538 -0.289183 0.127524
0.246367 -0.238665 0.082598
0.277228 -0.227351 0.157809
0.284109 -0.155061 0.170368
0.266966 -0.173813 0.105446
0.262347 -0.137994 0.145409
0.296944 -0.111887 0.142680
0.180106 0.021242 -0.030413
0.199708 -0.336044 0.771445
0.191393 -0.358000 0.756415
0.166185 -0.372446 0.761317
0.159567 -0.397863 0.739119
0.123710 -0.408856 0.693566
0.114361 -0.405545 0.670665
0.107079 -0.436075 0.701805
0.144121 -0.382629 0.745146
0.212077 -0.410108 0.679379
0.194742 0.078712 0.393820
0.169679 0.087833 0.429977
0.173591 0.044292 0.445720
0.136458 0.152703 0.255074
0.110419 0.120613 0.294497
0.171532 0.115700 0.354421
0.128040 0.124485 0.285553
0.129861 0.118988 0.258483
0.148707 0.145660 0.224241
0.108092 0.171879 -0.051447
0.015291 0.202856 0.283490
-0.016351 0.184108 0.199849
0.045443 0.167079 0.277546
0.020676 0.218990 0.306567
0.068302 0.170975 0.344144
0.077348 0.144618 0.318020
0.057809 0.195124 0.330404
0.066281 0.169734 0.278838
0.063813 0.156266 0.258563
0.264977 0.080011 0.710986
0.234460 0.031405 0.731042
0.214350 0.068495 0.764773
0.185064 0.043496 0.803334
0.165234 0.060625 0.754455
0.124040 -0.032896 0.874009
0.143857 0.025893 0.837933
0.191023 -0.048470 0.835755
0.176142 0.003143 0.835202
-0.020551 -0.375299 0.896114
0.279920 -0.256105 0.669714
0.257047 -0.293555 0.694224
0.267304 -0.274790 0.767594
0.265616 -0.272081 0.731001
0.211698 -0.334619 0.779028
0.222344 -0.305755 0.738159
0.250006 -0.307458 0.718545
0.218692 -0.365738 0.719895
-0.074047 -0.280794 -0.175201
-0.123605 -0.312889 -0.077283
-0.157830 -0.287440 -0.094680
-0.185461 0.161420 -0.165037
-0.180399 0.200603 -0.176634
-0.168399 0.187853 -0.212714
-0.210576 0.223815 -0.314246
-0.181898 0.193022 -0.260822
-0.215005 0.225650 -0.273433
-0.140520 0.221735 -0.216703
-0.160883 0.200993 -0.214182
-0.146638 0.229110 -0.241114
-0.213284 0.187450 -0.474757
-0.199617 0.221474 -0.393453
-0.256836 0.034788 -0.318859
-0.282848 0.119504 -0.359689
-0.261098 -0.106708 -0.285808
-0.306295 -0.153609 -0.381468
-0.082318 -0.072840 -0.530219
-0.093017 -0.091464 -0.500592
-0.261149 0.019945 -0.365814
-0.244713 0.020580 -0.351730
-0.036718 0.186770 -0.633391
-0.044416 0.128804 -0.590593
-0.241852 0.101723 -0.454115
-0.280170 -0.071744 -0.385408
-0.301603 -0.101177 -0.367181
-0.324960 -0.093097 -0.351912
-0.033201 -0.419713 -0.001712
-0.048892 -0.388669 0.056991
-0.064327 -0.357864 -0.083587
-0.054690 -0.373634 -0.060470
-0.173352 -0.400114 0.330128
-0.129188 -0.367326 0.215573
-0.117770 -0.407431 0.225042
-0.169884 -0.354527 0.245087
-0.117286 -0.378760 0.188437
-0.161616 -0.375641 0.353454
-0.187255 -0.381744 0.341868
-0.181458 -0.321192 0.338481
-0.189723 -0.341422 0.352914
-0.129076 -0.339103 0.024959
-0.197172 -0.309273 0.004494
-0.160669 -0.338660 0.021539
-0.273239 -0.129051 0.060403
-0.244242 -0.146439 0.049139
-0.245895 -0.186828 0.029150
-0.299344 -0.128349 0.047642
-0.283480 -0.095798 0.035523
-0.212862 0.001253 0.292092
-0.244482 0.001051 0.244177
-0.235070 -0.022361 0.286012
-0.253079 -0.096859 0.229698
-0.254614 -0.087516 0.328419
-0.275598 -0.086119 0.292009
-0.238375 -0.059957 0.350674
-0.266670 -0.024986 0.311801
-0.229141 -0.024633 0.338565
-0.036224 -0.435788 0.734690
-0.042120 -0.473504 0.732694
-0.075801 -0.443649 0.720720
-0.086427 -0.447026 0.653306
-0.079047 -0.461832 0.686060
-0.177257 0.128141 0.308010
-0.187507 0.081873 0.284215
-0.176811 0.113094 0.212806
-0.245511 0.065883 0.196783
-0.202414 0.031068 0.264110
-0.236536 0.028382 0.351566
-0.227574 0.050449 0.315265
-0.099574 0.128606 0.406938
-0.157304 0.123503 0.392520
-0.208147 0.158897 -0.040927
-0.180175 0.173944 -0.075131
-0.042210 0.179889 0.327199
-0.008435 0.183954 0.296512
-0.019551 0.189179 0.302333
-0.036820 0.196106 0.234985
-0.100247 0.181087 0.279122
-0.241527 0.099503 0.737551
-0.230827 0.034048 0.749970
-0.243469 0.034771 0.753383
-0.110168 0.072541 0.800311
-0.165635 0.042396 0.781411
-0.169191 0.019943 0.782708
-0.182963 0.070911 0.772525
-0.188768 -0.050370 0.839054
-0.166044 0.005932 0.880335
-0.027897 -0.391417 0.875521
-0.261764 -0.257506 0.783802
-0.237820 -0.218686 0.796404
-0.255052 -0.274267 0.747627
-0.260688 -0.255333 0.736451
-0.255672 -0.271618 0.682184
-0.247993 -0.285618 0.751823
-0.227546 -0.356669 0.695429
-0.255401 -0.305368 0.671622
-0.270516 -0.325843 0.755371
-0.211957 -0.336180 0.729299
-0.124064 0.175547 0.595409
-0.195304 0.219296 0.578158
-0.107543 -0.257146 0.933630
-0.109887 -0.240784 0.955393
-0.143583 -0.276647 0.903557
-0.162130 -0.301907 0.871704
-0.176655 -0.275398 0.895546
-0.203338 -0.261721 0.812849
-0.220288 -0.231108 0.860973
-0.213515 -0.277357 0.822096
-0.225059 -0.285880 0.786157
-0.180616 -0.285964 0.844365
-0.195294 0.117737 0.673072
-0.181026 0.100308 0.718974
-0.185170 0.087528 0.787178
-0.213861 0.111351 0.721239
-0.115213 0.220504 0.539910
-0.113167 0.189606 0.517073
-0.121355 0.176044 0.478668
-0.138686 0.210253 0.420595
-0.026248 0.226301 0.072571
-0.006812 0.214869 0.057418
-0.075941 0.178223 -0.022496
-0.068272 0.186575 0.021078
-0.196436 0.115903 -0.021641
-0.268326 0.122852 -0.011649
-0.312789 0.192952 0.445375
-0.306182 0.139135 0.466168
-0.310795 0.122570 0.536191
-0.282119 0.058678 0.675423
-0.282569 0.041536 0.628417
-0.278949 0.001971 0.179983
-0.275369 0.015393 0.187100
-0.298285 0.011606 0.152532
-0.256979 -0.203038 0.276567
-0.235526 -0.240147 0.277409
-0.243787 -0.147594 0.318020
-0.253603 -0.166523 0.303150
-0.265706 -0.104128 0.266662
-0.233808 -0.103541 0.285521
-0.228047 -0.239086 0.088283
-0.261761 -0.201078 0.079082
-0.264128 -0.285321 0.514711
-0.260700 -0.342475 0.541078
-0.194669 -0.375017 0.507290
-0.211050 -0.358716 0.506761
-0.227009 -0.377168 0.617322
-0.255226 -0.338777 0.632403
-0.218133 -0.345982 0.584263
-0.260140 -0.280777 0.638026
-0.271670 -0.316044 0.587382
-0.006282 -0.454812 0.535259
0.009461 -0.461659 0.480193
-0.041322 -0.453951 0.527763
-0.065199 -0.434441 0.458359
-0.065323 -0.477787 0.468946
-0.038157 -0.449599 0.478876
-0.251086 -0.107557 -0.391545
-0.066456 0.032947 -0.530794
-0.096324 0.016775 -0.518646
-0.090750 0.023807 -0.506239
-0.086472 -0.040748 -0.515634
-0.214673 -0.094694 -0.481901
-0.174322 -0.171807 -0.414847
-0.150845 -0.144580 -0.455271
-0.312640 -0.108362 -0.330357
-0.390283 -0.074764 -0.336000
-0.144432 -0.199309 -0.303151
-0.181774 -0.148545 -0.294881
-0.231730 -0.125304 -0.258717
-0.175991 -0.135765 -0.263192
-0.139776 0.234676 -0.448672
-0.091812 0.243369 -0.327407
-0.011628 0.280778 -0.263726
-0.034256 0.256610 -0.298315
-0.021649 0.261977 -0.280410
-0.246585 -0.045296 -0.171120
-0.165859 -0.104803 -0.159135
-0.192011 -0.101423 -0.162269
-0.133270 0.149629 -0.051840
-0.154805 0.161118 -0.114327
-0.105799 0.206793 -0.161708
-0.111021 0.168316 -0.134701
-0.155090 0.159467 -0.124630
-0.156024 0.169854 -0.161543
0.168838 0.171217 0.604952
0.164789 0.226289 0.572281
0.145296 -0.313245 0.922582
0.162403 -0.217764 0.925230
0.167462 -0.224459 0.892365
0.172695 -0.278364 0.874627
0.198230 -0.224107 0.870063
0.154182 -0.254056 0.902405
0.147932 -0.293549 0.874148
0.192329 -0.343301 0.824440
0.198684 -0.311380 0.838691
0.209169 -0.293621 0.809427
0.234805 0.110069 0.718150
0.153820 0.057108 0.747983
0.181283 0.100414 0.711247
0.091729 0.171094 0.539556
0.112954 0.177807 0.485724
0.140035 0.228454 0.429616
0.030180 0.220361 -0.025034
-0.000346 0.212736 -0.003416
0.034785 0.181650 0.076814
0.089693 0.183000 0.076841
0.090158 0.191462 0.046179
0.041408 0.203111 0.067330
0.049063 0.188823 -0.000234
0.219237 0.074475 0.000739
0.276218 0.153841 0.553371
0.289334 0.162574 0.567660
0.303122 0.210460 0.562340
0.277571 -0.126546 0.522285
0.296424 -0.105166 0.522519
0.325458 -0.049850 0.607007
0.294020 -0.104741 0.594183
0.299465 -0.080521 0.561152
0.291760 -0.045231 0.559615
0.287400 0.029006 0.620298
0.273794 -0.010982 0.643639
0.306006 -0.016547 0.599263
0.291962 -0.044593 0.620898
0.316505 -0.076237 0.602599
0.244791 -0.189214 -0.053358
0.244189 -0.254930 0.355687
0.240104 -0.159656 0.342328
0.253806 -0.146801 0.356029
0.271423 -0.176148 0.387067
0.264839 -0.118375 0.398963
0.182813 -0.357746 0.282714
0.192689 -0.347489 0.258298
0.166849 -0.358398 0.244268
0.145144 -0.343758 0.225463
0.187252 -0.289701 0.223970
0.236030 -0.274006 0.232154
0.217693 -0.287901 0.227872
0.224194 -0.295545 0.282504
0.194163 -0.286153 0.312018
0.157467 -0.402108 0.159956
0.100641 -0.373670 0.197567
0.068253 -0.371575 0.056322
0.098415 -0.408706 0.075594
0.089562 -0.413763 0.093430
0.113747 -0.375354 0.109851
0.116463 -0.351084 0.057588
0.400448 -0.105648 -0.460289
0.392931 -0.105987 -0.481908
0.348193 -0.106586 -0.473399
0.318308 -0.112092 -0.443362
0.060480 0.055120 -0.556561
0.088756 0.079915 -0.517036
0.040021 -0.067605 -0.488828
0.046508 0.019722 -0.500056
0.094564 -0.031907 -0.512623
0.227402 0.191625 -0.486373
0.266041 0.147713 -0.456785
0.210942 0.148625 -0.442750
0.427582 -0.142013 -0.448372
0.266006 -0.158146 -0.335137
0.137912 -0.172234 -0.213297
0.201262 -0.071527 -0.216894
0.222691 -0.049989 -0.214676
0.258490 -0.040468 -0.268070
0.259191 -0.039646 -0.256975
0.197979 0.264949 -0.364647
0.182230 0.244863 -0.374725
0.129513 0.264623 -0.386666
0.290943 0.183995 -0.305615
0.226207 0.201378 -0.307018
0.188823 0.012397 -0.161193
0.189508 0.061202 -0.134626
0.253127 0.066627 -0.187857
0.205872 0.101365 -0.158396
-0.005166 -0.372972 -0.087742
0.000646 -0.339258 -0.145629
0.069779 -0.323329 -0.122775
0.079162 -0.302793 -0.206876
0.025852 -0.369821 -0.141719
0.109289 0.175450 -0.092114
0.128566 0.171317 -0.089420
0.180279 0.126371 -0.097668
0.178075 0.106336 -0.122625
0.136628 0.153283 -0.114742
0.164565 0.130155 -0.153633
0.153792 0.180170 -0.148844
0.199237 -0.088839 -0.210288
0.239467 -0.092143 -0.226554
0.207144 -0.017744 -0.134159
0.209030 -0.045974 -0.180926
0.131985 0.244819 -0.254845
0.044132 0.257875 -0.283231
0.033519 0.272927 -0.273796
0.122257 0.232882 -0.445823
0.126839 0.253653 -0.434630
0.205027 -0.117969 -0.246745
0.158656 -0.156648 -0.259361
0.143565 -0.169720 -0.324233
0.198240 -0.176696 -0.298782
0.392081 -0.147796 -0.344314
0.360709 -0.159733 -0.347379
0.419177 -0.112551 -0.312623
0.178175 -0.091733 -0.467823
0.170444 -0.105780 -0.473781
0.228826 -0.142014 -0.486493
0.218418 -0.166851 -0.458837
0.171697 -0.164125 -0.449005
0.161314 -0.179563 -0.386689
0.106118 0.238131 -0.488558
0.269445 0.123287 -0.424784
0.241229 0.137374 -0.462792
0.128540 -0.007152 -0.520508
0.080282 0.037878 -0.516875
0.076988 0.041816 -0.519732
0.093135 0.088585 -0.481355
0.252315 -0.093363 -0.416885
0.367569 -0.074729 -0.405256
0.065791 -0.460515 0.522061
0.052217 -0.481113 0.517425
0.064266 -0.497888 0.539711
0.043998 -0.460603 0.417857
0.040931 -0.453043 0.484933
0.030941 -0.468357 0.471048
0.198643 -0.350304 0.548484
0.248366 -0.313753 0.520162
0.230864 -0.318621 0.492592
0.277634 -0.238614 0.593364
0.248977 -0.264745 0.609610
0.243783 -0.371828 0.669043
0.254576 -0.342463 0.638102
0.259696 -0.226103 0.109309
0.268444 -0.249647 0.068453
0.258727 -0.215543 0.318883
0.257895 -0.242921 0.313115
0.229351 -0.256636 0.312859
0.256085 -0.197041 0.309707
0.272979 -0.184764 0.345881
0.245106 -0.236295 0.243761
0.268621 -0.102631 0.260504
0.237893 -0.187772 0.251874
0.250596 -0.124920 0.309202
0.299290 0.025517 0.100307
0.281359 -0.040108 0.186438
0.263570 0.046208 0.174660
0.305425 0.042710 0.649848
0.267781 0.044303 0.669559
0.276224 0.027398 0.701696
0.314331 0.110674 0.483804
0.308497 0.149802 0.511872
0.336297 0.197279 0.459336
0.219736 0.135942 -0.044918
0.264807 0.195030 0.002121
-0.002733 0.217418 0.115020
0.030507 0.197975 0.133577
0.082806 0.213009 0.152971
0.075318 0.188651 0.189818
0.111815 0.214681 0.116249
0.066599 0.185350 0.145137
0.146712 0.211198 0.398163
0.250326 0.149289 0.648022
0.237847 0.102541 0.713297
0.274918 0.119542 0.667757
0.250608 0.103824 0.655752
0.216397 -0.077785 0.874583
0.209310 -0.116689 0.865092
0.248014 -0.108715 0.850583
0.164623 -0.134795 0.911420
0.244123 -0.139664 0.878617
0.246672 -0.206906 0.829117
0.226942 -0.168218 0.862487
0.222666 -0.177293 0.803343
0.274590 -0.135432 0.807669
0.021416 -0.397222 0.898492
0.034638 -0.341408 0.903447
0.182711 0.211929 -0.481778
0.162623 0.233785 -0.501755
-0.118583 -0.230320 -0.132579
-0.155036 -0.245114 -0.107251
-0.176660 -0.262530 -0.095087
-0.147385 -0.246010 -0.067301
-0.194387 -0.037437 -0.085793
-0.223017 0.013474 -0.094056
-0.155998 0.064382 -0.088836
-0.196250 0.028829 -0.068813
-0.183308 0.094918 -0.128717
-0.197924 0.110857 -0.135687
-0.201301 0.040669 -0.130197
-0.091471 -0.233783 -0.339743
-0.088811 -0.223329 -0.308103
-0.073397 -0.259754 -0.290021
-0.070650 -0.272447 -0.243805
-0.107444 -0.241730 -0.210626
-0.139299 -0.250329 -0.188861
-0.089430 -0.248011 -0.238863
-0.175848 0.234986 -0.351004
-0.196244 0.235751 -0.345711
-0.136759 0.249089 -0.303623
-0.245075 0.153852 -0.321287
-0.279341 0.146724 -0.346956
-0.124288 -0.172507 -0.380524
-0.123105 -0.207330 -0.267561
-0.099412 -0.241067 -0.300641
-0.132532 -0.195004 -0.303526
-0.141179 -0.136040 -0.439155
-0.094510 -0.131458 -0.476560
-0.326212 -0.152431 -0.489759
-0.320024 -0.153950 -0.430935
-0.278277 -0.149822 -0.468803
-0.295952 -0.155893 -0.400867
-0.060366 -0.104579 -0.470772
-0.054685 -0.138844 -0.473328
-0.001775 0.261286 -0.455485
-0.032537 0.275397 -0.513494
-0.081535 0.250888 -0.467253
0.016627 0.218211 -0.612986
-0.009804 0.182870 -0.617680
-0.140792 0.099282 -0.504271
-0.185349 0.024021 -0.482344
-0.220674 -0.017195 -0.431010
-0.214589 0.016674 -0.432736
-0.094166 0.128451 -0.527570
-0.260726 -0.113920 -0.471101
-0.199625 -0.064092 -0.466933
-0.407891 -0.095229 -0.361950
-0.023353 -0.451895 0.628465
-0.060957 -0.463876 0.651508
-0.103663 -0.448548 0.588301
-0.067417 -0.495715 0.587357
-0.046877 -0.486339 0.541648
-0.165474 -0.376647 0.393411
-0.167163 -0.368173 0.428925
-0.213659 -0.352450 0.459489
-0.235968 -0.303843 0.499731
-0.261224 -0.271086 0.432588
-0.250269 -0.312167 0.443063
-0.222188 -0.269908 0.444243
-0.278801 -0.248637 0.528667
-0.286432 -0.223253 0.543456
-0.272927 -0.229789 0.594659
-0.282110 -0.252788 0.615576
-0.276541 -0.251189 0.560090
-0.287103 -0.168575 0.601271
-0.327830 -0.174716 0.603629
-0.298595 -0.116015 0.596409
-0.289272 -0.155428 0.542123
-0.229213 -0.073238 -0.043082
-0.213042 -0.169518 -0.015881
-0.235247 -0.114923 -0.008062
-0.262188 0.008785 0.555822
-0.282391 -0.044476 0.547238
-0.288380 -0.075593 0.527327
-0.293621 -0.083790 0.607557
-0.302890 -0.088052 0.639960
-0.285720 -0.078360 0.579586
-0.294095 -0.051705 0.595299
-0.317015 0.157763 0.529846
-0.267907 0.136525 0.556158
-0.302570 0.061897 0.136905
-0.195802 0.120967 0.195162
-0.242960 0.121875 0.170176
-0.266925 0.049019 0.186690
-0.258465 0.071053 0.139441
-0.218428 0.155051 0.395729
-0.193624 0.128409 0.427354
-0.191268 0.100593 0.438130
-0.263054 0.113572 0.412655
-0.115822 0.160163 -0.043931
-0.133595 0.152957 0.187787
-0.147158 0.186564 0.160872
-0.141991 0.181024 0.200338
-0.217445 0.212221 0.389663
-0.017338 0.166498 0.568411
-0.035895 0.160801 0.522501
-0.233532 0.216765 0.609432
-0.250682 0.145984 0.615506
-0.261750 0.123048 0.695409
-0.006565 -0.014998 0.829320
-0.069118 -0.004897 0.818198
-0.022993 0.019434 0.871869
-0.046142 0.044098 0.803330
-0.016730 0.026844 0.824779
-0.103831 0.047360 0.788268
-0.086703 0.073278 0.787597
-0.097885 0.000356 0.882219
-0.073364 0.032808 0.805430
-0.025391 -0.428356 0.807492
-0.004768 -0.451101 0.771167
-0.047558 -0.397918 0.868973
-0.043408 -0.412693 0.840948
-0.063248 -0.441637 0.779361
-0.051828 -0.332231 0.916460
-0.075038 -0.333968 0.941446
-0.022551 -0.316964 0.947835
-0.024575 -0.250456 0.953759
-0.212273 -0.179485 0.872199
-0.184668 -0.165402 0.901181
-0.233132 -0.159355 0.869140
-0.232543 -0.118279 0.898001
-0.254344 -0.136582 0.798080
-0.253440 -0.079395 0.796374
-0.284726 -0.148045 0.823366
-0.280886 -0.169183 0.830427
-0.154230 0.179864 0.623831
-0.187863 0.176541 0.606410
-0.041928 0.176295 0.463695
-0.059644 0.152704 0.538223
-0.218511 0.174417 0.382866
-0.294711 0.212347 0.058850
-0.253477 0.207343 0.079922
-0.274025 0.170640 -0.061359
-0.272372 0.129987 -0.045910
-0.125882 0.182518 0.272955
-0.091548 0.155393 0.321738
-0.095865 0.173043 0.218902
-0.125007 0.121039 0.270600
-0.169578 0.111327 0.217916
-0.165221 0.134228 0.260103
-0.142754 0.116676 0.291959
-0.165456 0.062691 0.391969
-0.218299 0.070114 0.367105
