0.240363 -0.243161 0.403609
0.151700 -0.374715 0.282241
0.174270 -0.354260 0.274566
0.093222 -0.367089 0.008756
0.148602 0.155050 -0.485822
0.152751 0.208228 -0.516845
0.369368 -0.133380 -0.361626
0.285636 0.129489 -0.281567
0.279310 0.077496 -0.321182
0.222283 0.242626 -0.436751
0.185881 0.251087 -0.268723
0.196134 0.183957 -0.149688
0.122721 -0.306413 -0.047887
0.158128 -0.290421 -0.032787
0.092178 -0.267505 -0.168813
0.117979 -0.274520 -0.153836
0.227122 0.023705 -0.019398
0.217411 0.101335 -0.085543
0.138204 -0.236604 -0.144501
0.148155 -0.222527 -0.170419
0.125733 -0.203172 -0.258739
0.116170 -0.190605 -0.299947
0.199791 0.263766 -0.282098
0.204984 0.270015 -0.339538
0.141036 -0.173803 -0.306457
0.141072 -0.159456 -0.353715
0.137910 -0.139011 -0.387509
0.238876 0.080116 -0.411574
0.049336 0.151582 -0.555602
0.227386 0.086574 -0.429797
0.417696 -0.076022 -0.338601
0.092170 -0.415260 0.369355
0.205070 -0.379138 0.613865
0.219923 -0.368747 0.557824
0.119823 -0.418315 0.647057
0.213089 -0.257658 0.191559
0.246000 -0.237663 0.228047
0.193278 -0.303223 0.106909
0.242104 -0.205472 0.198028
0.303413 -0.128031 0.106014
0.300871 -0.126350 0.156463
0.214257 0.089560 -0.011955
0.222557 -0.348522 0.738548
0.129628 -0.400069 0.777293
0.202789 0.096144 0.418161
0.194883 0.134466 0.246922
0.141069 0.166309 0.346423
0.189819 0.143078 -0.044501
0.189173 0.195499 -0.032335
0.096739 0.199121 0.252635
0.075544 0.198810 0.341715
0.280390 0.087702 0.729086
0.264820 0.116037 0.742429
0.211586 0.043203 0.836664
0.172708 0.076049 0.813017
0.254677 -0.339237 0.706798
0.277942 -0.296052 0.734494
0.271627 -0.262446 0.787342
0.239470 -0.277788 0.783393
-0.111365 -0.244696 -0.118924
-0.085518 -0.287658 -0.094237
-0.187868 0.187767 -0.203126
-0.146303 0.241192 -0.254025
-0.156606 0.240060 -0.228569
-0.186785 0.197828 -0.213770
-0.202780 0.219779 -0.410504
-0.114690 -0.003896 -0.477476
-0.107791 -0.071393 -0.473008
-0.087224 0.211891 -0.539683
-0.205815 0.057455 -0.397769
-0.054463 0.209217 -0.581066
-0.304052 -0.063377 -0.367497
-0.108195 -0.371034 0.286292
-0.134198 -0.350777 0.296445
-0.154379 -0.282199 -0.009364
-0.229269 -0.097541 0.016690
-0.204324 0.033529 0.338460
-0.223908 -0.065264 0.315335
-0.227771 -0.072416 0.293083
0.020465 -0.445264 0.726120
-0.040899 -0.432857 0.758681
-0.202974 0.082744 0.318774
-0.180611 0.085798 0.355230
-0.178440 0.121731 0.243456
-0.038813 0.201372 0.338362
-0.048630 0.200120 0.378235
-0.214599 0.098162 0.752424
-0.112852 0.017190 0.855895
-0.195114 0.017792 0.837277
-0.183329 0.058218 0.798475
0.007331 -0.371803 0.903854
-0.216198 -0.276209 0.808407
-0.182260 -0.294785 0.818390
-0.246122 -0.278514 0.692943
-0.233208 -0.281616 0.709162
-0.160412 0.234802 0.613314
-0.140205 -0.282697 0.888572
-0.170312 -0.238198 0.880446
-0.139239 0.130174 0.740741
-0.112119 0.127731 0.742888
-0.202856 0.132084 0.737863
-0.080114 0.210047 0.519489
-0.071521 0.197251 0.572631
-0.062987 0.222673 0.119513
-0.014117 0.216760 0.027257
-0.234751 0.138871 0.015262
-0.283841 0.193303 0.504438
-0.246752 -0.041791 0.203612
-0.237504 -0.034595 0.195981
-0.253603 -0.003636 0.169830
-0.227759 -0.127783 0.277659
-0.226534 -0.144089 0.303005
-0.237455 -0.207396 0.356119
-0.252089 -0.267725 0.620366
-0.260230 -0.247989 0.649908
-0.239640 -0.287832 0.610039
-0.216525 -0.321523 0.585310
0.004396 -0.446615 0.499615
-0.367895 -0.081619 -0.376323
-0.097278 -0.001026 -0.489952
-0.216263 0.131699 -0.421953
-0.027459 0.265935 -0.547578
-0.077189 0.256987 -0.487709
-0.202054 -0.142735 -0.447895
-0.166162 -0.074460 -0.452725
-0.137954 -0.104859 -0.435146
-0.224450 -0.076139 -0.250736
0.005397 0.274399 -0.283235
-0.050004 0.283740 -0.246354
-0.072366 0.213424 -0.086382
0.232132 -0.248579 0.879693
0.252388 -0.212887 0.855110
0.190182 -0.279790 0.894644
0.156496 -0.284868 0.907751
0.222369 0.119254 0.756569
0.175265 0.159888 0.697515
0.120317 0.197663 0.483936
0.129383 0.215079 0.530417
0.055261 0.233155 0.016398
0.090241 0.219192 0.014066
0.250289 0.095129 0.011392
0.254955 0.132135 -0.018252
0.294935 0.166290 0.619651
0.333661 0.230224 0.511068
0.329470 -0.067678 0.616249
0.327437 -0.079255 0.619535
0.270781 -0.178992 0.378846
0.218742 -0.258917 0.353814
0.226239 -0.295667 0.324724
0.225141 -0.299200 0.313856
0.198565 -0.319482 0.251043
0.199695 -0.290496 0.242869
0.159039 -0.336793 0.091968
0.153575 -0.352794 0.129923
0.153317 -0.338651 0.110134
0.454540 -0.105209 -0.401205
0.427618 -0.086409 -0.396383
0.402853 -0.104936 -0.434426
0.101576 0.103568 -0.488160
0.092643 0.104756 -0.510061
0.222220 0.194738 -0.450523
0.404196 -0.131444 -0.393434
0.240404 -0.132869 -0.311339
0.170481 -0.214563 -0.135080
0.234104 -0.007124 -0.174699
0.251671 -0.054264 -0.188115
0.271367 -0.048418 -0.240069
0.179018 0.272567 -0.407278
0.258206 0.190999 -0.309880
0.226328 0.077252 -0.117275
0.051248 -0.310290 -0.125433
0.143476 0.228683 -0.146386
0.122525 0.225577 -0.103163
0.191227 0.154584 -0.077893
0.107505 0.289294 -0.317985
0.098648 0.287905 -0.287986
0.135890 0.279837 -0.424555
0.219403 -0.112527 -0.222969
0.189386 -0.152912 -0.262293
0.355313 -0.099572 -0.306001
0.178941 -0.116522 -0.430569
0.064901 0.269696 -0.543620
0.270055 0.126391 -0.419833
0.135726 0.018196 -0.483025
0.129136 0.063993 -0.477809
0.334626 -0.086466 -0.372352
0.102492 -0.431777 0.477841
0.253037 -0.331487 0.638338
0.275637 -0.303305 0.618225
0.304095 -0.255283 0.565107
0.265374 -0.169838 0.265468
0.283138 -0.011324 0.192639
0.305492 0.052068 0.689483
0.314761 0.137722 0.560961
0.300996 0.187952 0.469151
0.285870 0.162854 -0.003610
0.081027 0.221410 0.136522
0.295142 0.156740 0.681944
0.278637 0.217792 0.646556
0.272979 -0.092644 0.844482
0.229622 -0.146692 0.887690
0.194053 0.258575 -0.435037
0.190158 0.245169 -0.460386
-0.174880 0.014738 -0.096061
-0.151733 0.114669 -0.042763
-0.074595 -0.258825 -0.144645
-0.067002 -0.245283 -0.199035
-0.128961 0.266613 -0.327188
-0.174189 0.256237 -0.299707
-0.326786 -0.133140 -0.390672
-0.361161 -0.130571 -0.439745
-0.245473 -0.152550 -0.400948
0.007921 -0.088888 -0.475622
-0.026310 0.290967 -0.477279
-0.385578 -0.059852 -0.321309
0.024079 -0.457669 0.612087
-0.060695 -0.435977 0.648832
-0.203553 -0.252974 0.445064
-0.211494 -0.281555 0.437661
-0.205672 -0.314906 0.512946
-0.275425 -0.137977 0.546700
-0.262174 -0.186926 0.535141
-0.277007 -0.202240 0.611165
-0.266832 -0.224613 0.642993
-0.233803 -0.038496 -0.001706
-0.288355 0.039453 0.631581
-0.290130 0.007378 0.612401
-0.289475 -0.111590 0.588584
-0.273168 -0.034498 0.591615
-0.273688 -0.106155 0.553639
-0.234279 0.068335 0.228894
-0.122030 0.189416 -0.040515
-0.127027 0.183713 0.188376
-0.029971 0.186412 0.606596
-0.060907 0.191740 0.599364
-0.220091 0.149958 0.702196
-0.038507 0.079302 0.812229
0.000481 -0.373991 0.877282
-0.083642 -0.292492 0.941391
-0.228047 -0.146894 0.869614
-0.239558 -0.186525 0.818251
-0.165923 0.205317 0.678165
-0.051850 0.175945 0.538829
-0.231796 0.224430 0.126488
-0.133074 0.146482 0.352538
-0.199595 0.036606 0.420747
-0.284976 0.122123 0.560072
-0.206480 0.011971 0.458267
-0.195538 0.043855 0.450562
-0.211073 0.041329 0.483631
-0.224535 -0.087473 0.409428
-0.248763 -0.139792 0.154880
-0.230725 -0.183251 0.155213
-0.135100 -0.321756 0.087704
-0.129361 -0.324320 0.109588
-0.200539 -0.243688 0.190036
-0.090582 -0.432860 0.635854
-0.173634 -0.369383 0.628577
0.009773 -0.442407 0.348478
-0.050234 -0.437366 0.381890
-0.322042 -0.023847 -0.317352
-0.003258 0.147403 -0.567448
-0.223098 0.082119 -0.389986
-0.234404 0.081242 -0.359763
-0.002944 0.216827 -0.593415
-0.053100 -0.085898 -0.463567
-0.401890 -0.104165 -0.324725
-0.245565 0.060182 -0.295590
0.010395 0.278327 -0.214452
-0.027004 0.259498 -0.217476
-0.001177 0.260110 -0.172662
-0.146545 -0.229666 -0.035239
0.115873 -0.220300 0.950327
0.050603 -0.106873 0.960774
0.055964 -0.092306 0.949201
0.221326 0.138558 0.704655
0.251885 0.158135 0.696577
0.126800 0.196396 0.153393
0.259376 0.202069 -0.063080
0.285876 0.165950 0.144531
0.233696 0.204058 0.166666
0.272380 0.185475 0.146149
0.328202 -0.128119 0.713747
0.328846 -0.092548 0.726050
0.337527 -0.099052 0.669723
0.300942 -0.186066 0.782095
0.298587 -0.210720 0.755769
0.272394 -0.062352 0.208068
0.225978 -0.246543 0.034874
0.232758 -0.288477 0.403662
0.162264 -0.302843 -0.002137
0.129899 -0.323201 0.013297
0.307658 -0.009036 -0.334628
0.051964 0.075658 -0.509398
0.031292 0.116420 -0.527286
0.203076 0.126823 -0.448303
0.431966 -0.132417 -0.387527
0.076908 0.292110 -0.323603
0.285020 0.160488 -0.242614
0.249013 0.094378 -0.185096
0.182243 0.211623 -0.167752
0.048763 0.238710 -0.050918
0.177180 -0.193226 -0.079576
0.047253 0.259960 -0.137533
0.275260 0.214833 -0.404452
0.201721 -0.143093 -0.170850
0.255777 -0.108335 -0.263745
0.271386 -0.146817 -0.394164
0.379469 -0.137487 -0.436546
0.072172 -0.106312 -0.454445
0.081276 0.288622 -0.458477
0.387937 -0.059364 -0.342018
0.082789 -0.456985 0.628208
0.037641 -0.457976 0.661115
0.252863 -0.278033 0.517307
0.206583 -0.331856 0.453205
0.331297 -0.181443 0.659334
0.334464 -0.154017 0.629586
0.339311 -0.116967 0.642205
0.319891 -0.187406 0.565510
0.249908 -0.121997 -0.014071
0.270894 -0.062514 0.425673
0.291379 0.058900 0.617203
0.289344 0.053681 0.188147
0.180549 0.193576 0.155269
0.208432 0.152261 0.200414
0.216432 0.174284 0.177192
0.140908 0.166278 0.673228
0.116279 -0.312797 0.897676
0.118907 -0.329591 0.903283
0.147265 -0.368740 0.812384
0.150007 -0.350433 0.849203
0.106800 -0.285181 0.945228
-0.164646 -0.113252 -0.110878
-0.022900 -0.213074 -0.314225
-0.003402 -0.273113 -0.212117
0.008158 0.074107 -0.501650
-0.402215 -0.103193 -0.378484
-0.128430 -0.321416 0.040031
-0.206035 -0.240332 0.383252
-0.193909 -0.266737 0.391364
-0.189935 -0.185413 -0.019516
-0.239944 0.069359 0.033766
-0.269174 -0.208109 0.750886
-0.260390 -0.221197 0.713598
-0.272298 -0.118868 0.760034
-0.272858 -0.087113 0.747795
-0.203992 0.171522 0.162385
-0.257241 0.160434 0.114421
-0.106381 0.226485 0.123695
-0.142083 0.173810 0.444470
-0.112208 -0.357175 0.824171
-0.060819 -0.343790 0.888293
-0.072338 -0.323332 0.912410
-0.044868 -0.287783 0.965635
0.044519 -0.295559 0.944783
-0.006937 -0.288520 0.967930
-0.090236 0.221684 -0.031923
0.002527 -0.181977 0.975296
-0.073930 -0.156809 0.968778
-0.040050 -0.139718 0.948935
-0.027594 -0.188762 0.976991
-0.133656 -0.039874 0.925283
-0.124654 -0.014673 0.908604
-0.094761 -0.000265 0.908749
-0.103058 -0.064334 0.941133
-0.147836 -0.054049 0.915873
-0.145961 -0.157521 0.926793
-0.147970 -0.127762 0.935589
-0.252917 0.236362 0.576856
-0.266370 0.204354 0.425487
-0.105723 0.190203 0.464317
-0.081439 0.222264 0.110980
-0.092039 0.219329 0.051851
-0.068037 0.218266 0.042901
-0.097926 0.223872 0.038536
-0.106658 0.243389 0.071380
-0.268909 0.210008 0.060686
-0.266731 0.175809 0.040094
-0.254538 0.123960 0.066609
-0.236997 0.094845 0.030639
-0.261643 0.074961 0.121306
-0.258992 0.091655 0.101745
-0.260361 0.113680 0.125790
-0.262960 0.137887 0.603450
-0.272969 0.109549 0.673395
-0.218768 0.030060 0.505826
-0.258511 -0.032981 0.502572
-0.254039 -0.057037 0.523278
-0.284342 -0.094785 0.524446
-0.255838 -0.033072 0.528074
-0.249830 -0.007841 0.527036
-0.265659 -0.051464 0.126719
-0.263886 -0.016417 0.137504
-0.274147 -0.073589 0.175889
-0.247979 -0.070642 0.201502
-0.228779 -0.126982 0.443810
-0.239694 -0.153740 0.469287
-0.239951 -0.183081 0.453114
-0.244090 -0.185217 0.488833
-0.252295 -0.148982 0.498741
-0.266126 -0.157607 0.524603
-0.212061 -0.195029 0.026980
-0.119404 -0.410729 0.535758
-0.092884 -0.428552 0.536153
-0.115922 -0.413926 0.503896
-0.137872 -0.405745 0.533078
-0.140955 -0.393009 0.436207
-0.155317 -0.364976 0.468768
-0.129406 -0.387901 0.463463
-0.126320 -0.402379 0.445762
-0.005514 -0.410062 0.287666
-0.035476 -0.399474 0.249943
-0.047694 -0.398997 0.281052
-0.002473 -0.406810 0.256537
-0.269260 -0.073242 -0.437133
-0.052909 0.122595 -0.493953
-0.085729 0.125447 -0.472889
-0.147674 -0.006708 -0.451381
-0.141979 -0.031631 -0.444120
-0.175577 -0.005044 -0.410005
-0.161520 -0.040216 -0.412244
-0.194786 -0.031980 -0.386456
-0.171877 0.117042 -0.441364
-0.096581 0.257961 -0.544081
-0.221246 -0.148004 -0.331959
-0.191181 -0.144281 -0.300620
-0.156070 -0.152508 -0.290466
0.022974 -0.149986 -0.413403
-0.005001 -0.139165 -0.422798
-0.003122 -0.203335 -0.368084
-0.042682 -0.189423 -0.333527
-0.051314 -0.173044 -0.369261
-0.029113 -0.172364 -0.385278
-0.031096 -0.142152 -0.408804
-0.309326 0.000279 -0.291896
-0.265495 0.023405 -0.295607
-0.246560 0.007878 -0.278278
-0.065248 0.289976 -0.367974
0.017890 0.294285 -0.314934
-0.014092 0.292933 -0.303754
-0.031209 0.294124 -0.337965
-0.216047 0.105493 -0.176589
-0.211116 0.164459 -0.198532
-0.206194 0.189525 -0.214655
-0.242555 0.138203 -0.257978
-0.200447 0.149205 -0.171629
-0.178019 0.170517 -0.155672
-0.041992 0.232689 -0.064616
-0.046768 0.224635 -0.054577
-0.004912 0.236709 -0.002568
0.018699 0.226587 -0.021770
0.017913 0.244288 -0.056166
0.150578 0.227774 0.005933
0.161115 0.231589 -0.022488
0.032326 -0.162699 0.970662
0.067138 -0.178582 0.974444
0.017064 -0.192881 0.973509
0.071277 -0.190414 0.976705
0.225439 -0.057140 0.898561
0.215559 -0.025868 0.892195
0.239587 -0.036233 0.862163
0.199723 -0.052395 0.903740
0.151336 -0.026628 0.918867
0.174781 -0.158548 0.927465
0.164005 -0.106883 0.943551
0.298475 0.260426 0.586064
0.311690 0.227637 0.564865
0.293147 0.221245 0.618176
0.312309 0.183300 0.398022
0.166641 0.181888 0.448043
0.127402 0.214112 -0.020186
0.157680 0.242830 0.086425
0.150451 0.240714 0.042838
0.214589 0.231611 -0.069964
0.166510 0.177120 -0.030591
0.315365 0.192563 0.071863
0.310575 0.141449 0.094139
0.260717 0.057308 0.515693
0.282691 0.060735 0.539893
0.309430 -0.070186 0.781607
0.307802 -0.073338 0.753160
0.310921 -0.029886 0.720220
0.311449 0.040072 0.680963
0.316451 0.006815 0.691328
0.306434 0.021830 0.710788
0.311716 -0.068305 0.086844
0.306505 -0.056054 0.081700
0.286664 0.076615 0.033789
0.292746 0.056995 0.056774
0.305762 0.031182 0.074796
0.307351 0.056050 0.089383
0.280596 -0.151320 0.196876
0.276878 -0.178189 0.192592
0.292422 -0.109933 0.202042
0.267572 -0.111297 0.222613
0.276512 -0.168970 0.074369
0.252776 -0.181902 0.041111
0.174107 -0.383812 0.425456
0.116401 -0.412850 0.448038
0.129313 -0.404190 0.417304
0.117674 -0.413534 0.353534
0.137840 -0.389181 0.350693
0.172889 -0.372437 0.359369
0.075369 -0.404858 0.221731
0.095725 -0.387190 0.148571
0.075672 -0.401358 0.163661
0.056215 -0.398064 0.167762
0.002360 -0.395990 0.123570
0.053155 -0.394959 0.122163
0.063112 -0.383669 0.074756
0.329981 -0.074467 -0.398563
0.246103 -0.028756 -0.363983
0.289632 -0.032139 -0.352126
0.164793 0.047744 -0.498515
0.035353 0.035947 -0.491636
0.221322 0.114735 -0.426373
0.067483 0.204917 -0.593913
0.111516 0.271775 -0.522442
0.346528 -0.128990 -0.459729
0.155894 -0.177412 -0.363105
0.227677 -0.148550 -0.395575
0.248842 -0.152250 -0.355804
0.129235 -0.124933 -0.428581
0.113139 0.287257 -0.405521
0.042884 0.295986 -0.402357
0.030330 0.294219 -0.385942
0.246230 0.037444 -0.198453
0.271881 0.006854 -0.238267
0.281839 0.062489 -0.229449
0.279848 0.089718 -0.208265
0.254652 0.034566 -0.165413
0.254828 0.088007 -0.156195
0.032067 0.254496 -0.107744
0.111306 0.225052 -0.072925
0.088440 0.225139 -0.103696
0.191169 -0.245053 -0.031428
0.178477 -0.275534 -0.037358
0.166747 -0.238372 -0.055377
0.202430 -0.218898 -0.076123
0.177604 -0.220537 -0.079204
0.217704 -0.096181 -0.043916
0.228774 -0.121593 -0.045397
0.202292 -0.045149 -0.083917
0.227759 -0.061188 -0.060102
0.217605 -0.097023 -0.133572
0.211793 -0.062909 -0.097312
0.207092 -0.039143 -0.102879
0.033994 -0.281721 -0.230315
0.020900 -0.287927 -0.179989
0.034472 -0.244805 -0.264306
0.063580 -0.207327 -0.308986
0.049389 -0.253458 -0.287997
0.088192 -0.256840 -0.270524
0.091463 -0.259313 -0.197594
0.147813 0.263377 -0.449233
0.203989 -0.135633 -0.218910
0.370218 -0.025058 -0.289548
0.344338 -0.036058 -0.279879
0.304756 -0.023130 -0.261512
0.364505 -0.065512 -0.290017
0.407314 -0.084633 -0.304169
0.398855 -0.113733 -0.470636
0.086511 0.285544 -0.502824
0.101242 0.250866 -0.567873
0.201686 0.195430 -0.498023
0.293420 0.099609 -0.370933
0.199697 -0.012865 -0.436923
0.223091 0.002326 -0.417182
0.337662 -0.088873 -0.455611
0.274962 -0.077837 -0.414133
0.287380 -0.073140 -0.444930
0.310139 -0.072627 -0.425315
0.104989 -0.401122 0.288436
0.062639 -0.401393 0.282137
0.040282 -0.411626 0.306415
0.030648 -0.430541 0.261722
0.047175 -0.404601 0.234442
0.194972 -0.390577 0.513028
0.196559 -0.384129 0.520727
0.166129 -0.407879 0.552535
0.140806 -0.407836 0.522133
0.130593 -0.422050 0.492390
0.173762 -0.399912 0.486477
0.253015 -0.162837 0.006439
0.272054 -0.182938 0.447578
0.274756 -0.212650 0.456159
0.280025 -0.139146 0.444007
0.280975 -0.179983 0.497432
0.313715 -0.166068 0.520073
0.309608 -0.193671 0.530691
0.294363 -0.067322 0.153133
0.315071 -0.041901 0.128786
0.302074 -0.017280 0.168626
0.311661 0.031667 0.148105
0.280158 -0.102755 0.446145
0.251451 -0.071491 0.448111
0.270905 -0.052179 0.478991
0.260471 0.000245 0.478518
0.275482 -0.027818 0.490963
0.289693 0.014167 0.544789
0.280911 -0.009489 0.508426
0.299504 -0.053341 0.523173
0.293984 0.071347 0.648882
0.309402 0.087858 0.633021
0.314334 0.133997 0.605199
0.305181 0.156058 0.654832
0.292944 0.101478 0.103231
0.262023 0.137262 0.469062
0.295601 0.130666 0.494577
0.208648 0.195257 -0.038526
0.194489 0.236363 -0.045730
0.031278 0.210768 0.421210
0.044274 0.206330 0.388394
0.070309 0.205319 0.398973
0.092478 0.191614 0.484089
0.100301 0.187645 0.454727
0.127510 0.179844 0.402752
0.286381 0.201078 0.403063
0.160172 0.173979 0.648395
0.178626 0.190797 0.673202
0.051884 0.059895 0.800430
0.050364 0.046164 0.835630
0.032891 0.035641 0.857195
0.123443 0.011931 0.893508
0.116395 0.045517 0.849455
0.110618 0.076174 0.811047
0.130656 0.059173 0.837291
0.087550 -0.388856 0.840304
0.085663 -0.403521 0.792965
-0.027144 0.249029 -0.111009
-0.070641 0.240111 -0.135269
-0.195123 0.072646 -0.126530
-0.179743 0.123674 -0.136578
-0.161008 0.145473 -0.114170
-0.243031 0.014153 -0.225050
-0.217484 0.065861 -0.179094
-0.234658 0.087765 -0.203605
-0.050322 0.288501 -0.415119
-0.086839 -0.166336 -0.376637
-0.085698 -0.131051 -0.400406
-0.233526 -0.140238 -0.307974
-0.390046 -0.128091 -0.410203
-0.041789 0.227543 -0.588243
-0.174296 0.177303 -0.482951
-0.196699 0.168452 -0.445808
-0.218699 0.177436 -0.438760
0.003086 -0.022303 -0.487983
-0.043062 -0.021154 -0.489440
-0.028604 0.123643 -0.519673
-0.055163 0.096737 -0.482901
-0.249924 -0.064560 -0.373272
-0.404492 -0.108027 -0.436610
-0.312801 -0.076587 -0.416946
-0.329945 -0.096558 -0.445050
-0.060445 -0.403411 0.213638
-0.072960 -0.393803 0.169228
-0.122000 -0.344210 0.203858
-0.097811 -0.363934 0.199888
-0.102081 -0.338255 0.046617
-0.121242 -0.348140 0.119365
-0.073788 -0.385411 0.085384
-0.141071 -0.335225 0.261327
-0.181870 -0.298849 0.286418
-0.160911 -0.317132 0.306665
-0.190020 -0.272969 0.346119
-0.200382 -0.258555 0.330963
-0.185283 -0.290115 0.297950
-0.220569 -0.177824 0.341457
-0.208324 -0.244116 0.409649
-0.225558 -0.113125 0.402494
-0.237391 -0.035127 0.028412
-0.252692 -0.045098 0.045149
-0.274047 -0.016702 0.047611
-0.264905 0.021422 0.122393
-0.264354 0.056510 0.098723
-0.256946 0.028631 0.073238
-0.289729 -0.093273 0.669667
-0.284091 -0.077081 0.687213
-0.287473 -0.037812 0.701786
-0.296355 -0.036652 0.676783
-0.268727 -0.077934 0.747700
-0.250051 0.027332 0.735367
-0.264897 0.166952 0.593006
-0.259655 0.159631 0.628276
-0.255810 0.195736 0.621442
-0.182169 0.119971 -0.008758
-0.185586 0.222951 -0.047587
-0.002680 0.214007 0.212782
-0.015686 0.221894 0.178299
0.012873 0.204872 0.164133
-0.070270 0.214818 0.149037
-0.150295 0.201969 0.407925
-0.139125 0.190200 0.682837
-0.122028 0.190663 0.658516
-0.205031 -0.036978 0.850912
-0.225189 -0.058930 0.831012
-0.244937 -0.007160 0.769122
-0.005907 -0.042454 0.917090
-0.019062 -0.040024 0.932624
-0.027236 -0.004404 0.900640
-0.042195 -0.004666 0.909270
-0.035449 -0.068973 0.939318
-0.147380 -0.182380 0.926590
-0.079117 -0.202315 0.976198
0.067180 -0.254371 0.980483
0.037346 -0.240994 0.971764
-0.136484 0.246506 -0.451816
0.000189 -0.341757 0.930648
-0.063022 -0.110283 0.961462
-0.042406 -0.089987 0.951231
-0.018345 -0.095386 0.957371
-0.230111 0.210885 0.643589
-0.190464 0.180807 0.704256
0.002662 0.105929 0.764943
-0.046283 0.101119 0.715731
-0.003175 0.128032 0.713558
-0.027841 0.145592 0.699513
0.020149 0.159222 0.663276
-0.062988 0.181367 0.635731
-0.060341 0.166690 0.670782
-0.035096 0.153403 0.689656
-0.060818 0.141869 0.718672
-0.004224 0.202582 0.386882
-0.020675 0.202302 0.425524
-0.079590 0.185328 0.393592
-0.069680 0.185678 0.449283
-0.044614 0.193999 0.460029
-0.040849 0.194086 0.451450
-0.149468 0.224744 -0.041019
-0.082317 0.203647 -0.059486
-0.121726 0.162139 -0.044017
-0.264014 0.197034 0.079122
-0.263327 0.167862 0.051191
-0.219702 0.066787 0.500115
-0.242850 0.047532 0.549747
-0.224823 0.066734 0.511031
-0.069655 -0.420725 0.752532
-0.081804 -0.388863 0.801427
-0.098184 -0.413246 0.769857
-0.115172 -0.371513 0.789988
-0.145068 -0.331433 0.799751
-0.184568 -0.365879 0.693177
-0.196208 -0.341817 0.741511
-0.136796 -0.381414 0.733649
-0.105485 -0.399847 0.717756
-0.175779 0.055681 -0.029511
-0.182112 0.091571 -0.005123
-0.220904 -0.200503 0.179930
-0.234085 -0.172872 0.197999
-0.236665 -0.152723 0.231342
-0.232177 -0.095732 0.260286
-0.231196 -0.116858 0.246093
-0.237974 -0.088722 0.213063
-0.236497 -0.159895 0.073783
-0.235292 -0.170117 0.047191
-0.116452 -0.401906 0.416277
-0.148832 -0.364025 0.361877
-0.091090 -0.415003 0.361368
0.003117 -0.420655 0.207691
0.001093 -0.406053 0.180180
-0.027785 -0.393312 0.174564
-0.024881 -0.397922 0.204604
-0.036674 -0.379946 0.087967
-0.032922 -0.389273 0.119818
-0.005221 -0.386162 0.073867
-0.331257 -0.091405 -0.382522
-0.219061 -0.001976 -0.362135
-0.239624 -0.017531 -0.345688
-0.263966 -0.045689 -0.352275
-0.122674 0.053467 -0.469362
0.025034 0.039209 -0.492264
0.025579 0.002722 -0.499334
-0.024624 0.061136 -0.510562
-0.264722 -0.089226 -0.471495
-0.252528 -0.134310 -0.448103
-0.276547 -0.128956 -0.466487
-0.307342 -0.119290 -0.457902
-0.207652 -0.140859 -0.419052
-0.188607 -0.148190 -0.394199
-0.121144 -0.149981 -0.371272
-0.150763 -0.160124 -0.324378
-0.157711 -0.157454 -0.361173
-0.210226 -0.153121 -0.345732
-0.124776 -0.181174 -0.215573
-0.105327 -0.206838 -0.199797
-0.136382 -0.198205 -0.225202
-0.206067 -0.057952 -0.230897
-0.187256 -0.104338 -0.208921
-0.232077 -0.020301 -0.205565
-0.175161 0.260309 -0.417448
-0.098930 0.284597 -0.383197
-0.212502 0.210995 -0.259244
-0.203396 0.052467 -0.152690
-0.194862 0.012867 -0.146693
-0.016163 -0.308729 -0.139211
-0.003516 -0.297463 -0.171520
-0.002346 -0.366286 -0.076601
-0.049929 -0.320401 -0.076109
-0.179148 0.019122 -0.024091
0.091906 -0.336005 0.897780
0.052828 -0.025372 0.891309
0.066897 -0.065290 0.934688
0.083431 -0.000656 0.903311
0.046858 -0.057342 0.940446
0.261424 0.032752 0.805986
0.243252 -0.016432 0.850985
0.294002 -0.065323 0.815467
0.276092 -0.021168 0.819403
0.295903 -0.025462 0.789988
0.276846 -0.056187 0.839310
0.290593 -0.016637 0.774417
0.043661 0.166477 0.643474
0.052681 0.137952 0.709373
0.041910 0.148961 0.659155
0.141827 0.127253 0.745860
0.097798 0.094483 0.773623
0.094303 0.143380 0.710510
0.116819 0.174558 0.650841
0.237406 0.202199 0.405362
0.309802 0.233783 0.070420
0.282158 0.231037 0.116073
0.303225 0.232982 0.006743
0.153117 0.163717 0.394158
0.136321 0.150557 0.434972
0.181957 0.138884 0.422945
0.234743 0.102890 0.248877
0.220516 0.119818 0.279551
0.221954 0.103116 0.298255
0.246357 0.031570 0.354194
0.225270 0.083686 0.352770
0.250265 0.050245 0.317001
0.256373 0.058661 0.255610
0.244462 0.069446 0.291677
0.114715 -0.398203 0.805479
0.098032 -0.436345 0.761723
0.055423 -0.435577 0.736820
0.050572 -0.470540 0.711589
0.086470 -0.434819 0.704404
0.279684 -0.065262 0.253251
0.278927 -0.031651 0.268922
0.272841 -0.017124 0.294853
0.251274 0.011651 0.355366
0.265868 0.003564 0.324818
0.272081 -0.027170 0.349191
0.274310 -0.025741 0.320903
0.273637 -0.057840 0.342682
0.293772 -0.157877 0.086389
0.297007 -0.148023 0.085972
0.280724 -0.141551 0.059944
0.287850 -0.047782 0.033112
0.297146 -0.063009 0.049035
0.283901 -0.094043 0.031122
0.280660 -0.107506 0.047088
0.192016 -0.244928 0.005995
0.216438 -0.219904 -0.028932
0.237998 -0.221709 0.003626
0.147665 -0.397940 0.301818
0.132712 -0.381940 0.260191
0.071756 -0.368649 0.032585
0.033846 -0.387693 0.070832
0.052610 -0.366160 0.006888
0.026196 -0.355207 -0.024626
0.278322 -0.059617 -0.361899
0.349441 -0.046897 -0.339674
0.119080 0.208259 -0.566192
0.100295 0.162108 -0.534008
0.087785 0.166189 -0.563081
0.265831 0.046148 -0.359719
0.265180 0.060000 -0.400158
0.126821 0.222447 -0.539419
0.118618 -0.103284 -0.460395
0.101639 -0.055853 -0.477741
0.179340 -0.009809 -0.460609
0.155957 -0.040099 -0.480856
0.323752 -0.150481 -0.344916
0.306669 -0.138522 -0.336331
0.306170 -0.069416 -0.274327
0.295570 0.095863 -0.281400
0.294805 0.065822 -0.302013
0.259948 0.200759 -0.424198
0.245566 0.214398 -0.231261
0.224911 0.200079 -0.207294
0.237342 0.241164 -0.289597
0.170416 0.262476 -0.256308
0.201564 0.229743 -0.248078
0.159033 0.262665 -0.229431
0.144565 0.238649 -0.171615
0.162142 0.248101 -0.193460
0.208851 0.142355 -0.112491
0.232566 0.149116 -0.161080
0.124343 -0.295592 -0.078901
0.146018 -0.237313 -0.105154
0.130170 -0.275406 -0.100363
0.156672 -0.275446 -0.064642
0.215402 0.064928 -0.063905
0.225809 0.040704 -0.063646
0.209033 0.021928 -0.080822
0.228619 0.046206 -0.098885
0.126501 -0.245617 -0.174909
0.118784 -0.251069 -0.228240
0.099861 -0.213363 -0.276904
0.124902 -0.216843 -0.242840
0.134415 -0.192527 -0.242210
0.136647 -0.218425 -0.208614
0.222072 0.256371 -0.297579
0.238998 0.251706 -0.324003
0.182521 0.275840 -0.311081
0.167908 0.277063 -0.290875
0.302272 0.135792 -0.332869
0.287729 0.180894 -0.317243
0.121124 -0.170117 -0.336652
0.186000 -0.158946 -0.315695
0.053587 -0.064280 -0.480632
0.086840 -0.061648 -0.480188
0.028253 0.280964 -0.532073
0.059195 0.280351 -0.531350
0.051181 0.183459 -0.597000
0.285627 0.064832 -0.352909
0.275941 0.088195 -0.385838
0.276167 0.118788 -0.402035
0.031167 0.157585 -0.566758
0.057126 0.152995 -0.580616
0.399703 -0.067883 -0.320793
0.429589 -0.092150 -0.353275
0.110081 -0.420479 0.422567
0.057457 -0.430160 0.413027
0.023806 -0.438372 0.441559
0.062871 -0.422483 0.372643
0.029637 -0.427560 0.384696
0.073409 -0.413216 0.335303
0.198645 -0.376705 0.664108
0.217948 -0.361155 0.687533
0.235761 -0.349038 0.652194
0.206701 -0.365595 0.638034
0.187156 -0.393747 0.641519
0.160858 -0.405512 0.657095
0.117737 -0.435231 0.614430
0.134235 -0.438631 0.568253
0.156626 -0.413561 0.592493
0.195691 -0.387459 0.565036
0.190590 -0.324939 0.207976
0.206866 -0.299446 0.177581
0.201169 -0.305106 0.184826
0.194246 -0.292945 0.162178
0.161943 -0.328998 0.167336
0.193007 -0.309789 0.131514
0.232687 -0.254472 0.071294
0.215467 -0.275641 0.102642
0.225860 -0.264713 0.128615
0.224319 -0.267287 0.159058
0.242758 -0.241870 0.156811
0.249943 -0.230311 0.184498
0.247825 -0.230379 0.089873
0.269225 -0.229482 0.150517
0.232897 -0.227179 0.114788
0.282281 -0.153422 0.148822
0.276319 -0.136036 0.181081
0.301986 -0.094578 0.174702
0.194178 -0.341540 0.806259
0.218080 -0.346166 0.784797
0.191330 -0.364898 0.758792
0.168387 -0.380629 0.765632
0.168832 -0.365547 0.800046
0.132695 -0.434389 0.703272
0.120886 -0.417801 0.719550
0.147141 -0.403446 0.727777
0.195509 -0.370712 0.728162
0.188160 -0.385876 0.689866
0.244706 0.042573 0.418137
0.235990 0.053860 0.403561
0.217981 0.089494 0.412250
0.207531 0.107881 0.447978
0.231753 0.070816 0.455843
0.140738 0.187272 0.265768
0.167085 0.168919 0.279550
0.148775 0.155349 0.226377
0.167941 0.145538 0.291313
0.135648 0.185498 0.297500
0.131939 0.156798 0.356367
0.184921 0.114474 0.376017
0.184086 0.129150 0.338170
0.188737 0.147687 0.292875
0.041231 0.222319 0.221022
0.010014 0.222211 0.271483
0.051065 0.214608 0.293733
0.046179 0.218244 0.346968
0.100976 0.198152 0.352493
0.097891 0.203881 0.298585
0.262770 0.138850 0.721908
0.261915 0.073242 0.772349
0.169133 -0.002119 0.896380
0.153281 0.025791 0.877766
0.182404 0.034379 0.854947
0.211250 0.008061 0.868472
0.290512 -0.269266 0.707705
0.274930 -0.246162 0.738173
0.280731 -0.260109 0.760532
0.288110 -0.232022 0.763289
0.243023 -0.288713 0.794280
0.233367 -0.320705 0.777325
0.227385 -0.316429 0.734361
-0.043372 -0.299176 -0.109637
-0.056021 -0.277622 -0.134978
-0.085220 -0.282972 -0.101009
-0.059180 -0.335091 -0.043334
-0.117334 -0.263606 -0.066246
-0.150364 0.184315 -0.139635
-0.164185 0.196238 -0.169543
-0.114750 0.227903 -0.165753
-0.142807 0.212660 -0.186826
-0.213212 0.238722 -0.286768
-0.199889 0.220373 -0.240590
-0.100574 0.246602 -0.172523
-0.127664 0.247219 -0.208851
-0.109477 0.265138 -0.240576
-0.183446 0.211050 -0.442016
-0.190766 0.247630 -0.387484
-0.243416 0.088309 -0.271487
-0.266517 0.090550 -0.292524
-0.244944 0.160746 -0.283070
-0.250560 0.124024 -0.299631
-0.147436 -0.143344 -0.217775
-0.282868 -0.082746 -0.313602
-0.260765 -0.071292 -0.273460
-0.280561 -0.126042 -0.337807
-0.324580 -0.131922 -0.361276
-0.086560 -0.025267 -0.484766
-0.116035 -0.047688 -0.455272
-0.058974 0.274676 -0.525344
-0.072281 0.181010 -0.534550
-0.065307 0.183227 -0.566337
-0.200705 0.098914 -0.418520
0.024178 -0.379871 0.039484
-0.004332 -0.378924 0.020432
-0.038090 -0.346345 -0.015441
-0.022802 -0.361360 -0.007065
0.007003 -0.355354 -0.033154
-0.078294 -0.392239 0.309384
-0.142834 -0.358205 0.325915
-0.122426 -0.397247 0.316970
-0.141695 -0.355551 0.236002
-0.117482 -0.359719 0.259391
-0.083639 -0.381324 0.230676
-0.086914 -0.380933 0.249492
-0.149227 -0.343538 0.347244
-0.191238 -0.320261 0.383669
-0.186371 -0.317246 0.359329
-0.156346 -0.352255 0.388251
-0.136683 -0.303193 0.034227
-0.172928 -0.275946 0.043838
-0.232175 -0.159716 0.021058
-0.260581 -0.092207 0.111605
-0.252814 -0.108425 0.088062
-0.245902 -0.094959 0.050869
-0.219850 0.020906 0.251848
-0.215950 -0.011687 0.288901
-0.224195 -0.026002 0.277390
-0.225252 -0.065945 0.375117
-0.218208 -0.022301 0.379181
-0.247936 -0.050614 0.351568
-0.217953 -0.008473 0.314300
-0.209677 0.010681 0.364789
0.020316 -0.428549 0.781765
-0.015745 -0.454749 0.751664
-0.008490 -0.432358 0.762238
-0.071827 -0.427239 0.718958
-0.047619 -0.425149 0.748305
-0.005624 -0.445274 0.698545
-0.159800 0.118495 0.327159
-0.169889 0.114402 0.297565
-0.202377 0.055996 0.287763
-0.199527 0.082217 0.243575
-0.203171 0.039932 0.299672
-0.103888 0.170615 0.442994
-0.088252 0.172976 0.409971
-0.137553 0.124113 0.381140
-0.138332 0.150036 0.393675
-0.139539 0.136253 0.418342
-0.185350 0.189483 -0.034432
0.011984 0.217421 0.335826
-0.006113 0.213800 0.361832
0.003407 0.216929 0.288223
-0.061025 0.207365 0.259413
-0.049770 0.197623 0.290213
-0.226874 0.066334 0.754937
-0.159348 0.085551 0.803316
-0.119647 0.105544 0.780776
-0.113736 0.065022 0.833034
-0.171197 0.062372 0.827013
-0.172393 -0.015952 0.874837
-0.169042 0.017803 0.843263
-0.133897 0.010758 0.890511
-0.136789 0.026858 0.868077
-0.147601 0.000794 0.887471
-0.225165 -0.217620 0.817875
-0.238604 -0.227218 0.783109
-0.226379 -0.256370 0.778856
-0.248818 -0.253696 0.732959
-0.230055 -0.287511 0.726470
-0.210952 -0.320968 0.680828
-0.187299 -0.341547 0.706305
-0.207315 -0.312665 0.728256
-0.205112 -0.313616 0.767323
-0.152074 0.231876 0.633515
-0.118901 0.217998 0.624920
-0.090433 0.206542 0.613844
-0.119017 0.238851 0.583340
-0.109918 -0.268148 0.941729
-0.097177 -0.218742 0.946908
-0.156705 -0.257340 0.893337
-0.135564 -0.226919 0.915374
-0.150209 -0.197696 0.927072
-0.204334 -0.237674 0.841448
-0.215053 -0.218150 0.865657
-0.182724 -0.274367 0.839695
-0.171165 -0.274419 0.852171
-0.173698 0.120525 0.721951
-0.172069 0.103067 0.760812
-0.144171 0.121574 0.741056
-0.103916 0.219134 0.535509
-0.101202 0.234481 0.516894
-0.096248 0.197266 0.477055
-0.115034 0.218452 0.445528
0.019808 0.209871 0.103884
-0.016153 0.228874 0.105380
0.005038 0.233764 0.076762
-0.069774 0.212096 0.006988
-0.029064 0.217527 0.054367
-0.169647 0.159382 -0.049730
-0.224862 0.176623 -0.021625
-0.221486 0.146575 -0.009817
-0.272590 0.180065 0.483706
-0.275732 0.149418 0.494136
-0.265490 0.144933 0.543273
-0.273259 0.174778 0.539681
-0.251251 0.059102 0.696619
-0.248557 0.090505 0.701533
-0.256798 0.069465 0.669960
-0.230971 0.020900 0.208828
-0.253052 0.032922 0.177574
-0.210309 -0.220245 0.268421
-0.222576 -0.184739 0.282864
-0.232631 -0.193490 0.298332
-0.211014 -0.215081 0.327778
-0.220668 -0.175143 0.328140
-0.228541 -0.099387 0.374399
-0.247087 -0.130029 0.340656
-0.226132 -0.143545 0.340135
-0.229660 -0.085719 0.307748
-0.228220 -0.112190 0.307270
-0.215708 -0.212325 0.112186
-0.237437 -0.175496 0.087713
-0.240162 -0.271548 0.550978
-0.256890 -0.257608 0.580683
-0.224699 -0.301813 0.566556
-0.207933 -0.328537 0.559101
-0.195640 -0.343965 0.645913
-0.188588 -0.358679 0.676876
-0.260751 -0.272627 0.658466
-0.235440 -0.302130 0.651844
0.026392 -0.451946 0.521922
-0.006598 -0.453619 0.540725
-0.081672 -0.436228 0.554268
-0.038277 -0.449838 0.559624
-0.041256 -0.458182 0.544798
-0.069534 -0.428895 0.507306
-0.036763 -0.431159 0.438232
-0.034481 -0.436870 0.467032
-0.041163 -0.440568 0.512906
-0.008502 -0.442630 0.443500
-0.338905 -0.073500 -0.358965
-0.228773 -0.061078 -0.420650
-0.068512 0.043694 -0.501456
-0.075296 0.073244 -0.475372
-0.234255 0.158625 -0.405982
0.002985 0.228631 -0.584774
-0.043854 0.286278 -0.513773
-0.064103 0.271378 -0.463903
-0.189327 -0.090759 -0.455093
-0.129158 -0.127813 -0.421353
-0.161367 -0.139041 -0.406104
-0.322090 -0.095631 -0.319767
-0.317831 -0.060417 -0.317504
-0.136254 -0.155565 -0.267162
-0.169277 -0.149690 -0.253897
-0.198938 -0.108160 -0.240173
-0.117596 0.251001 -0.422953
-0.102469 0.285835 -0.317055
-0.088857 0.285060 -0.288100
-0.052711 0.289664 -0.287304
-0.098740 0.279642 -0.258846
0.013101 0.287525 -0.252355
-0.196351 -0.033170 -0.172318
-0.183949 -0.063505 -0.168039
-0.168656 -0.078615 -0.157262
-0.175511 -0.033719 -0.129583
-0.144367 0.137548 -0.068295
-0.131911 0.157357 -0.096660
-0.120077 0.209547 -0.157372
-0.098796 0.210690 -0.109763
-0.115945 0.187880 -0.100982
-0.149025 0.178539 -0.111553
0.163127 0.222304 0.599372
0.193018 0.217365 0.645126
0.209247 0.245140 0.591959
0.169000 0.244973 0.563802
0.151027 -0.248964 0.941096
0.139385 -0.233757 0.960941
0.187912 -0.216379 0.915838
0.196005 -0.179429 0.935739
0.158628 -0.217146 0.934688
0.212751 -0.195376 0.913253
0.203399 -0.237711 0.902055
0.181249 -0.256508 0.917091
0.207148 -0.309263 0.840450
0.233765 -0.269690 0.847109
0.205098 -0.289656 0.865165
0.255223 -0.266571 0.826592
0.264744 -0.241239 0.809114
0.211415 0.142607 0.738573
0.147881 0.126721 0.754701
0.158177 0.108817 0.778107
0.190621 0.102186 0.778040
0.232556 0.083260 0.756020
0.114905 0.189767 0.597229
0.129064 0.207463 0.521947
0.144836 0.221610 0.558515
0.147153 0.219351 0.485368
0.161865 0.232936 0.458143
0.031386 0.236658 0.056818
0.101217 0.219562 0.112510
0.081808 0.224836 0.062082
0.197466 0.097260 -0.027790
0.220377 0.140499 -0.014282
0.236530 0.107698 -0.004111
0.324967 0.173328 0.561276
0.309306 0.207457 0.593667
0.303833 -0.071454 0.553183
0.287363 -0.052042 0.545201
0.329124 -0.071198 0.591530
0.290001 -0.009102 0.575777
0.317742 0.030298 0.626096
0.316576 0.017568 0.617832
0.299972 -0.017285 0.612139
0.329462 -0.034775 0.625220
0.273087 -0.145212 -0.006345
0.262003 -0.213426 0.425731
0.264696 -0.206972 0.405680
0.256479 -0.231061 0.344208
0.261996 -0.143024 0.365617
0.276447 -0.123697 0.394509
0.255050 -0.180925 0.400353
0.193598 -0.347409 0.322554
0.205874 -0.324406 0.327571
0.191619 -0.342084 0.302051
0.210339 -0.311451 0.294629
0.156593 -0.342300 0.228103
0.232754 -0.263674 0.246577
0.245170 -0.245178 0.262278
0.227842 -0.293011 0.255017
0.251508 -0.234846 0.301314
0.253482 -0.234554 0.332317
0.171778 -0.343708 0.172833
0.139356 -0.370976 0.209857
0.133018 -0.360010 0.179644
0.092672 -0.390637 0.202294
0.106310 -0.373968 0.114756
0.111229 -0.358212 0.080896
0.124333 -0.370553 0.140440
0.134052 -0.375587 0.110699
0.337089 -0.076870 -0.442914
0.388186 -0.092898 -0.409319
0.261824 -0.090296 -0.477267
0.237335 -0.074215 -0.443483
-0.000891 -0.057413 -0.481498
0.036535 -0.027737 -0.511277
0.093156 0.024426 -0.492263
0.091399 -0.015055 -0.492126
0.051350 0.231261 -0.585788
0.411820 -0.122858 -0.445833
0.166587 -0.191724 -0.199617
0.185996 -0.173938 -0.174239
0.213888 -0.086804 -0.203431
0.252470 -0.062953 -0.220359
0.275997 -0.012947 -0.238380
0.196864 0.246672 -0.388356
0.225820 0.259660 -0.358205
0.145673 0.275901 -0.388657
0.163487 0.282621 -0.365419
0.289282 0.182437 -0.282148
0.264854 0.218688 -0.272932
0.237014 0.076027 -0.129929
0.235617 0.097712 -0.141282
0.030339 -0.328832 -0.091070
0.044404 -0.338547 -0.063950
0.083264 -0.291503 -0.140622
0.076531 -0.326135 -0.109591
0.061571 -0.313620 -0.158166
0.087328 -0.330913 -0.051027
0.079296 -0.318712 -0.080326
0.230039 -0.018482 -0.043873
0.134382 0.194316 -0.092080
0.173967 0.167646 -0.086812
0.164122 0.207757 -0.124771
0.223809 -0.096694 -0.179050
0.234418 -0.067604 -0.198458
0.235364 -0.009204 -0.128125
0.228208 -0.046976 -0.133484
0.136522 0.271631 -0.250160
0.110261 0.280645 -0.234855
0.119508 0.269641 -0.286899
0.065784 0.274516 -0.304757
0.033848 0.284924 -0.231811
0.062308 0.287947 -0.254257
0.236985 -0.092235 -0.234378
0.214291 -0.136738 -0.247243
0.163663 -0.167449 -0.290454
0.415679 -0.116493 -0.330124
0.380082 -0.114430 -0.325110
0.183489 -0.080968 -0.436559
0.217143 -0.098231 -0.437400
0.248689 -0.130805 -0.447649
0.255384 -0.139999 -0.424427
0.206483 -0.130121 -0.412268
0.184949 -0.140009 -0.393681
0.121595 0.271307 -0.488187
0.131612 0.272383 -0.460557
0.043481 0.254263 -0.558198
0.033656 0.233608 -0.595207
0.284864 0.165695 -0.409787
0.121046 -0.006916 -0.491606
0.129630 0.018794 -0.491511
0.103184 0.055537 -0.510873
0.374542 -0.088010 -0.386352
0.081926 -0.447689 0.564604
0.087309 -0.437116 0.526725
0.071048 -0.447692 0.505100
0.048250 -0.452432 0.558062
0.028937 -0.457192 0.581131
0.026500 -0.461043 0.475068
0.059981 -0.441222 0.454843
0.245508 -0.339994 0.536363
0.243529 -0.345123 0.601319
0.258734 -0.324976 0.576339
0.288131 -0.274915 0.578522
0.289113 -0.271834 0.528964
0.277129 -0.300486 0.584338
0.303261 -0.256143 0.658756
0.288609 -0.280820 0.644921
0.266348 -0.278601 0.591757
0.265774 -0.323738 0.658435
0.275086 -0.299754 0.661415
0.285667 -0.186862 0.112077
0.254501 -0.217254 0.061812
0.267708 -0.191418 0.345285
0.276436 -0.158593 0.330644
0.263823 -0.202793 0.320079
0.263914 -0.181456 0.293285
0.263220 -0.217683 0.261596
0.282873 -0.095352 0.259709
0.254902 -0.142366 0.257915
0.280775 -0.106369 0.294966
0.272636 -0.156235 0.298268
0.279634 -0.120244 0.324372
0.263042 -0.092099 0.339742
0.304112 0.059106 0.163564
0.295233 0.002481 0.179237
0.285612 0.001149 0.220093
0.277142 0.047203 0.216577
0.294381 0.038552 0.714218
0.309604 0.164717 0.509227
0.332433 0.198204 0.512214
0.255572 0.162941 -0.042266
0.272211 0.141490 0.014100
0.320427 0.237323 0.038234
0.318289 0.208788 0.028397
0.057098 0.226186 0.124778
0.002771 0.229547 0.132895
0.061912 0.203085 0.180469
0.024666 0.225349 0.209494
0.109835 0.207075 0.229664
0.100558 0.212891 0.181354
0.059087 0.217249 0.200267
0.113812 0.213298 0.151426
0.201475 0.210669 0.416765
0.178677 0.228458 0.428624
0.337833 0.213294 0.480595
0.267393 0.186850 0.671075
0.260871 -0.087875 0.856551
0.230282 -0.094484 0.889918
0.218228 -0.150158 0.920085
0.236907 -0.144687 0.901387
0.269051 -0.195834 0.841844
0.275913 -0.167037 0.841660
0.252804 -0.192123 0.872186
0.274307 -0.139711 0.837909
0.287607 -0.122974 0.832990
0.053624 -0.332128 0.951105
0.032585 -0.338366 0.936305
0.215794 0.224988 -0.464157
-0.126474 -0.229946 -0.080344
-0.161358 -0.199512 -0.085598
-0.178177 -0.002156 -0.046478
-0.168945 0.064681 -0.079641
-0.185786 0.081427 -0.041029
-0.173153 0.108440 -0.114562
-0.172898 0.074236 -0.092958
-0.052002 -0.200014 -0.304539
-0.058655 -0.220694 -0.257989
-0.040532 -0.270978 -0.174425
-0.078366 -0.236900 -0.220578
-0.108525 -0.231016 -0.172447
-0.095288 -0.203845 -0.240827
-0.173722 0.260518 -0.353225
-0.121752 0.270855 -0.259723
-0.130937 0.256606 -0.294220
-0.243730 0.162933 -0.370540
-0.247937 0.164899 -0.332562
-0.263654 0.181410 -0.306830
-0.121680 -0.159062 -0.346302
-0.075969 -0.176285 -0.324497
-0.091798 -0.187459 -0.265109
-0.093265 -0.181905 -0.295202
-0.115556 -0.166397 -0.291627
-0.096388 -0.099907 -0.429990
-0.278982 -0.136067 -0.424834
-0.241607 -0.148043 -0.363847
-0.266962 -0.144352 -0.383354
-0.296661 -0.138822 -0.363501
0.020426 0.294461 -0.465766
-0.125301 0.163122 -0.486661
-0.114058 0.111965 -0.464119
-0.179875 0.024451 -0.420465
-0.204273 0.023636 -0.385083
-0.061574 0.140794 -0.511312
-0.202669 -0.067427 -0.437969
-0.341289 -0.038752 -0.305202
-0.377378 -0.088609 -0.340522
0.011024 -0.452249 0.680532
-0.002851 -0.459326 0.643881
-0.020415 -0.447616 0.682975
-0.064892 -0.451400 0.599485
-0.058260 -0.463688 0.640923
-0.016061 -0.452853 0.620011
-0.181609 -0.342202 0.460256
-0.187902 -0.343310 0.501284
-0.235970 -0.256577 0.518839
-0.238413 -0.289539 0.490450
-0.227633 -0.240321 0.484784
-0.260229 -0.228915 0.519910
-0.267420 -0.192317 0.567028
-0.264625 -0.227192 0.630407
-0.269433 -0.205973 0.601397
-0.287637 -0.144937 0.646513
-0.284001 -0.149405 0.596725
-0.279492 -0.171318 0.581828
-0.298189 -0.157612 0.649234
-0.279780 -0.120539 0.585373
-0.275537 -0.151454 0.577635
-0.222537 -0.016783 -0.003672
-0.215147 -0.105349 -0.006428
-0.210642 -0.136888 -0.015525
-0.233145 -0.065606 0.021812
-0.254015 -0.002915 0.554266
-0.265538 0.028869 0.591346
-0.278834 -0.026776 0.582405
-0.282773 -0.056439 0.545310
-0.286658 -0.087429 0.622592
-0.302814 -0.063526 0.638154
-0.279997 -0.061226 0.605013
-0.276745 0.009479 0.637315
-0.279910 0.232570 0.527112
-0.275043 0.208945 0.527408
-0.255179 0.067368 0.150230
-0.245312 0.071114 0.171392
-0.224590 0.056322 0.198205
-0.249647 0.061970 0.190486
-0.193078 0.132244 0.207074
-0.208187 0.095079 0.213634
-0.249845 0.099258 0.195142
-0.245901 0.103118 0.152899
-0.183791 0.165161 0.441522
-0.196926 0.123192 0.475639
-0.215225 0.151120 0.454767
-0.216370 0.172473 0.432992
-0.217559 0.195910 -0.042814
-0.087342 0.193381 0.214154
-0.107359 0.163328 0.230115
-0.086506 0.204323 0.170498
0.001747 0.185699 0.593193
0.001959 0.169747 0.627390
-0.010222 0.172507 0.563967
0.008938 0.181593 0.529721
-0.223566 0.202251 0.661627
-0.243372 0.175060 0.672997
-0.238993 0.126361 0.713693
-0.001191 0.019235 0.860433
-0.033223 0.031708 0.852309
0.007009 0.045353 0.855020
0.019096 0.068085 0.804998
-0.037073 0.056904 0.841696
0.022269 0.073359 0.792735
-0.078235 0.083610 0.809296
-0.049744 0.096408 0.789532
-0.077080 0.104846 0.759951
-0.077774 0.052741 0.849716
-0.096742 0.026553 0.865609
0.016153 -0.409993 0.811287
0.010223 -0.390491 0.848989
-0.021137 -0.400982 0.833178
-0.042179 -0.417164 0.811380
-0.058919 -0.315148 0.948009
0.013847 -0.268889 0.965849
0.004656 -0.334096 0.953731
-0.013104 -0.245987 0.977880
-0.166416 -0.183709 0.916924
-0.196511 -0.170095 0.870537
-0.184869 -0.148067 0.899827
-0.186699 -0.112110 0.901343
-0.211222 -0.065986 0.875582
-0.211314 -0.095478 0.878072
-0.243770 -0.111847 0.810611
-0.224841 -0.102424 0.850728
-0.242658 -0.153315 0.816817
-0.186811 0.228642 0.655571
-0.229280 0.252903 0.620829
-0.014801 0.198368 0.528874
-0.006491 0.196842 0.499615
-0.066697 0.196263 0.506982
-0.189635 0.192849 0.417018
-0.246330 0.239858 0.085300
-0.269709 0.224128 -0.020278
-0.235433 0.201324 -0.027663
-0.255010 0.180896 -0.002041
-0.097280 0.167202 0.346829
-0.101877 0.178890 0.315373
-0.100909 0.175877 0.276077
-0.151702 0.146554 0.259592
-0.166592 0.125193 0.223854
-0.123054 0.147580 0.251632
-0.125016 0.160552 0.281266
-0.125455 0.153903 0.304551
-0.162547 0.136933 0.307274
-0.166155 0.102124 0.410521
-0.180314 0.079310 0.399311
-0.170304 0.099385 0.378537
-0.192607 0.055045 0.372275
-0.185612 0.070489 0.476064
-0.174252 0.088067 0.443455
-0.155261 0.123497 0.452622
-0.168557 0.099353 0.468600
-0.248920 0.100146 0.546883
-0.255616 0.092021 0.565999
-0.261924 0.090009 0.628883
-0.259540 0.054993 0.606520
-0.200035 0.034445 0.384119
-0.223036 0.017398 0.419381
-0.221766 -0.056415 0.410741
-0.226972 -0.085340 0.446506
-0.217789 -0.065209 0.437167
-0.217896 -0.027652 0.468570
-0.253294 -0.133443 0.118457
-0.243875 -0.164867 0.127869
-0.246874 -0.112637 0.190245
-0.267195 -0.102266 0.163466
-0.168224 -0.272052 0.077188
-0.188363 -0.269080 0.081565
-0.140957 -0.315686 0.155494
-0.154855 -0.313506 0.184681
-0.154510 -0.308406 0.133329
-0.170587 -0.297547 0.103317
-0.171238 -0.281372 0.155573
-0.188456 -0.250695 0.116320
-0.213181 -0.237457 0.147206
-0.198360 -0.246271 0.158327
-0.149529 -0.315135 0.199716
-0.172147 -0.305605 0.220479
-0.210949 -0.256956 0.216296
-0.203222 -0.234634 0.244352
-0.091401 -0.413329 0.683312
-0.079855 -0.441409 0.669708
-0.105599 -0.409483 0.633890
-0.141778 -0.388198 0.643802
-0.139535 -0.384709 0.661157
-0.186218 -0.353336 0.560189
-0.155526 -0.379778 0.599066
-0.185304 -0.361347 0.609979
-0.115964 -0.407149 0.591862
-0.113748 -0.419406 0.571754
-0.128816 -0.417032 0.621295
-0.015218 -0.445039 0.405157
-0.062911 -0.435322 0.441370
-0.054121 -0.408958 0.337464
-0.009217 -0.415445 0.336801
-0.019093 -0.420559 0.369331
0.018385 -0.416623 0.330721
-0.326140 -0.056225 -0.338529
0.007156 0.183528 -0.593632
0.010042 0.129405 -0.548416
-0.256047 0.061115 -0.338960
-0.043228 -0.055096 -0.481581
-0.380519 -0.127278 -0.354794
-0.221136 -0.107525 -0.273717
-0.157091 -0.160749 -0.095272
-0.147134 -0.171598 -0.102578
-0.138039 -0.168440 -0.172193
-0.138038 -0.177764 -0.133458
-0.122053 -0.209935 -0.136661
-0.238082 0.040815 -0.250451
-0.230701 0.202106 -0.381730
-0.236257 0.196386 -0.348957
-0.221839 0.221678 -0.351652
-0.073722 0.254685 -0.219490
-0.100837 0.263140 -0.207578
-0.042829 0.266895 -0.202181
-0.065974 0.254382 -0.171088
-0.036874 0.234175 -0.144624
-0.176699 -0.182472 -0.025937
-0.158878 -0.199305 -0.040291
0.168093 -0.193205 0.935415
0.136556 -0.158894 0.967486
0.119794 -0.118713 0.961977
0.094079 -0.097961 0.947886
0.119390 -0.052587 0.929277
0.195655 0.201981 0.667996
0.209328 0.164557 0.670195
0.257863 0.258465 0.618591
0.241407 0.205994 0.668218
0.040052 0.195677 0.522565
0.068049 0.173825 0.508916
0.048992 0.186133 0.556045
0.031059 0.174613 0.616424
0.064613 0.181048 0.595802
0.097690 0.189293 0.558751
0.229494 0.214228 0.403079
0.131419 0.192339 0.207313
0.140296 0.194073 0.193016
0.158372 0.191057 0.179646
0.167210 0.180106 0.194852
0.235756 0.231272 0.135364
0.254306 0.131612 0.190320
0.251272 0.174801 0.173690
0.235937 0.112657 0.483255
0.302335 -0.091436 0.805654
0.312306 -0.119567 0.770184
0.272365 -0.175895 0.811182
0.301604 -0.145578 0.790666
0.311346 -0.224659 0.722522
0.313463 -0.230704 0.689704
0.321779 -0.159304 0.747329
0.321570 -0.199877 0.699403
0.329378 -0.165410 0.698515
0.334873 -0.146872 0.677624
0.252949 -0.014399 -0.000725
0.237952 0.052041 -0.003473
0.275214 0.066684 0.007695
0.269373 0.011647 -0.011738
0.275429 -0.004853 0.252129
0.283862 -0.047796 0.241371
0.198485 -0.288768 0.053579
0.184863 -0.296811 0.028208
0.183162 -0.279867 -0.009044
0.203037 -0.359824 0.439118
0.214522 -0.315356 0.418848
0.196339 -0.340200 0.406511
0.199676 -0.370524 0.356672
0.117786 -0.354029 -0.014698
0.160040 -0.325832 0.045687
0.123721 -0.349731 0.045609
0.252258 0.008995 -0.362225
0.327560 0.000422 -0.312108
0.220588 0.031307 -0.444596
0.190644 0.034598 -0.464598
0.066605 0.118534 -0.521821
0.076365 0.083317 -0.500581
0.192025 -0.048581 -0.457056
0.208700 0.152047 -0.458649
0.161181 0.217295 -0.504097
0.137204 0.254860 -0.553728
0.446783 -0.130321 -0.392620
0.474434 -0.126304 -0.371770
0.254723 -0.144522 -0.328021
0.227205 -0.146837 -0.320342
0.061432 -0.206260 -0.362042
0.058952 -0.162081 -0.408281
0.100953 -0.106030 -0.446685
0.091188 -0.158849 -0.408062
0.086418 -0.182150 -0.344330
