-0.288203 0.008750 0.113603
-0.239827 -0.234659 0.411389
-0.240253 -0.178472 -0.015999
-0.112248 -0.440861 0.446830
-0.210511 -0.369103 0.499873
-0.183860 -0.398052 0.486222
-0.015758 -0.433466 0.257914
-0.079381 -0.426375 0.295076
-0.085018 0.086658 -0.492180
-0.173160 0.013960 -0.474875
-0.189419 -0.064378 -0.458155
-0.216127 0.140689 -0.474170
-0.078069 -0.132634 -0.464403
-0.041706 -0.157740 -0.452086
-0.017863 -0.235185 -0.337720
-0.285813 0.020284 -0.346178
-0.038006 0.266950 -0.358941
-0.085863 0.274828 -0.333793
-0.276757 0.077474 -0.265886
-0.236527 0.168689 -0.262774
-0.060933 0.209756 -0.056267
0.073296 -0.157222 0.929149
0.190192 -0.159446 0.896985
0.186887 -0.118384 0.898578
0.123083 -0.101789 0.921034
0.283966 0.205201 0.612598
0.117056 0.204253 0.007614
0.256483 0.141535 0.026243
0.282034 0.160268 0.078162
0.259806 0.016149 0.526021
0.279635 -0.017974 0.700427
0.256790 -0.015901 0.722869
0.299048 -0.057951 0.660879
0.309833 -0.075853 0.643075
0.276377 -0.006731 0.105491
0.289999 -0.031314 0.083164
0.279990 -0.019144 0.073218
0.266784 -0.023893 0.019184
0.268271 -0.035586 0.035162
0.277202 -0.179733 0.155638
0.237589 -0.178035 0.011056
0.106326 -0.445241 0.407868
0.044734 0.207010 -0.622278
0.295058 -0.143616 -0.501600
0.270200 -0.130039 -0.474887
0.175653 -0.187593 -0.370142
0.104167 -0.131243 -0.468723
0.044261 0.291484 -0.427327
0.241436 0.055755 -0.193968
0.212387 -0.031233 -0.157405
0.064270 0.244508 -0.131866
0.038520 0.208172 -0.131737
0.197004 -0.222001 -0.081667
0.180177 -0.115584 -0.137968
0.034574 -0.288503 -0.205880
0.024285 -0.273239 -0.295177
0.179759 -0.159732 -0.238007
0.299793 -0.075932 -0.309595
0.394180 -0.077472 -0.328084
0.020189 0.272498 -0.513900
0.165471 0.181418 -0.517710
0.190110 -0.006279 -0.470798
0.343793 -0.120545 -0.457844
0.079677 -0.418380 0.230635
0.009574 -0.435580 0.276127
0.105836 -0.451532 0.489681
0.265790 -0.250986 0.478843
0.247804 -0.254074 0.455231
0.256353 -0.147376 0.440821
0.293824 -0.078409 0.173203
0.282142 0.090251 0.586907
0.288080 0.060891 0.074369
0.269530 0.114338 0.468453
0.265203 0.131733 0.412604
0.082651 0.158999 0.363405
0.048741 0.170173 0.420566
0.017927 0.160736 0.453397
0.263161 0.162548 0.392668
0.106485 0.144256 0.621441
0.092086 0.050927 0.761067
0.131246 0.091439 0.764847
0.023362 0.012697 0.850024
0.028032 -0.405171 0.838036
0.029081 -0.391718 0.885385
0.030790 -0.434025 0.787430
-0.080164 0.194605 -0.086868
-0.051610 0.217110 -0.131691
-0.252471 0.014243 -0.244583
-0.224910 0.011422 -0.207134
-0.134699 -0.202108 -0.257344
-0.266628 -0.134616 -0.316373
-0.300941 -0.129643 -0.338224
-0.056198 0.215079 -0.589933
-0.053253 -0.001629 -0.517870
-0.222275 -0.096244 -0.437169
-0.288457 -0.112248 -0.419553
-0.388614 -0.105272 -0.408904
-0.078554 -0.424263 0.109998
-0.134958 -0.340632 0.135251
-0.129162 -0.380829 0.110072
-0.205418 -0.288390 0.231951
-0.207784 -0.317549 0.319542
-0.244671 -0.181976 0.359420
-0.258548 -0.186618 0.342854
-0.274473 -0.012194 0.020057
-0.259455 0.037396 0.026801
-0.291714 -0.052212 0.089862
-0.309911 -0.004263 0.647534
-0.275679 -0.044677 0.736408
-0.287156 -0.040371 0.702414
-0.305024 -0.051292 0.730171
-0.280187 0.200341 0.552002
-0.078014 0.178733 0.192907
-0.039847 0.182616 0.114288
-0.260512 -0.055189 0.797191
-0.259210 0.002391 0.762592
-0.012910 -0.079106 0.921046
-0.003774 -0.106886 0.929050
-0.192940 0.194349 -0.482085
-0.122398 -0.079148 0.895715
-0.177713 0.146961 0.680111
-0.112638 0.105530 0.721418
-0.055934 0.097562 0.720930
-0.041786 0.135891 0.638875
-0.051039 0.130892 0.676661
-0.015272 0.170984 0.452108
-0.107661 0.151550 0.396906
-0.208112 0.209452 -0.063752
-0.283736 0.135178 0.018270
-0.259367 0.080099 0.491999
-0.238938 0.023088 0.468596
-0.107015 -0.451104 0.710974
-0.144424 -0.398946 0.757126
-0.189012 -0.355619 0.752258
-0.113752 -0.418431 0.347785
-0.121862 -0.399069 0.365840
-0.019942 -0.445837 0.108472
-0.013920 -0.029312 -0.532596
-0.245379 0.098436 -0.436153
-0.107891 0.149830 -0.540928
-0.065329 0.185063 -0.625254
-0.344953 -0.135995 -0.485835
-0.285929 -0.113277 -0.498515
-0.233320 -0.176371 -0.373370
-0.148665 -0.183149 -0.381929
-0.128381 -0.242422 -0.194511
-0.128502 -0.238746 -0.162442
-0.240642 -0.018133 -0.272530
-0.137693 0.244090 -0.421906
-0.168352 0.241349 -0.404976
-0.244380 0.202670 -0.322979
-0.228230 0.063856 -0.183366
-0.077700 -0.308345 -0.200271
-0.046668 -0.306192 -0.170263
-0.027025 -0.356129 -0.105646
0.093307 -0.038828 0.887957
0.230373 -0.036277 0.820531
0.052506 0.126213 0.668843
0.016344 0.070304 0.762255
0.044942 0.090663 0.720776
0.286922 0.171314 0.061776
0.226187 0.040279 0.213910
0.213039 0.059026 0.328075
0.078707 -0.447366 0.695511
0.252861 -0.087501 0.295401
0.235022 -0.005645 0.278420
0.278809 -0.127085 0.071307
0.272612 -0.127455 0.047155
0.246869 -0.153754 0.011216
0.185867 -0.272421 -0.013579
0.208496 -0.254680 0.009950
0.206499 -0.272740 0.389793
0.208286 -0.309438 0.373617
0.158189 -0.386310 0.218113
0.068224 -0.426392 0.250981
0.059346 -0.368469 -0.019334
0.106043 0.152454 -0.562585
0.089508 0.195747 -0.581880
0.145810 -0.080696 -0.478684
0.098028 -0.036027 -0.494262
0.272214 0.107981 -0.310730
0.269178 0.075724 -0.337565
0.216179 0.212141 -0.469610
0.178448 0.229271 -0.242865
0.180261 0.230993 -0.273715
0.121512 0.193215 -0.172742
0.120903 -0.330954 -0.046879
0.119717 -0.323244 -0.089609
0.118463 -0.347469 -0.075913
0.100354 -0.278092 -0.146773
0.186240 0.108249 -0.112843
0.205957 0.010998 -0.085741
0.113012 -0.253362 -0.234637
0.112421 -0.280210 -0.183667
0.129192 -0.248838 -0.173735
0.101258 -0.218798 -0.295979
0.197440 0.243296 -0.396585
0.270808 0.133278 -0.353002
0.125516 -0.186618 -0.355169
0.119027 0.161540 -0.513499
0.011527 0.161336 -0.611141
0.210208 0.057146 -0.468395
0.062527 -0.442059 0.354680
0.189208 -0.383099 0.559334
0.136285 -0.440673 0.603402
0.107615 -0.441720 0.649331
0.219848 -0.285375 0.168731
0.195787 -0.289292 0.183862
0.210794 -0.279354 0.211894
0.184694 -0.312433 0.049363
0.280874 -0.124907 0.149556
0.294320 -0.172917 0.109273
0.222477 -0.377628 0.677824
0.186550 -0.398627 0.721282
0.198786 -0.376766 0.702896
0.106649 -0.411052 0.744911
0.117585 -0.411792 0.775080
0.158657 -0.406121 0.724810
0.222933 0.023570 0.417168
0.170275 0.103349 0.416429
0.167259 0.101215 0.384724
0.120425 0.156827 0.321856
0.060500 0.188878 0.221785
0.061898 0.173550 0.328051
0.255102 0.057742 0.703178
0.235103 0.084653 0.722519
0.205774 -0.013726 0.804846
0.135860 0.011448 0.826608
0.143608 0.046166 0.766578
0.175776 0.027811 0.814408
0.228958 -0.331286 0.696396
0.232748 -0.325825 0.685207
0.244200 -0.304814 0.765269
-0.125631 -0.274592 -0.151440
-0.114739 -0.302772 -0.117043
-0.092109 -0.339016 -0.086959
-0.193813 0.181419 -0.205352
-0.208946 0.197267 -0.237366
-0.176671 0.196779 -0.226076
-0.276074 0.071405 -0.342339
-0.189251 -0.140625 -0.222156
-0.334827 -0.080648 -0.325718
-0.290432 -0.163422 -0.354951
-0.052461 0.279699 -0.540497
-0.121763 0.184689 -0.544470
-0.091542 0.162983 -0.589070
-0.013157 -0.395103 -0.025247
-0.102372 -0.432000 0.259234
-0.168770 -0.399674 0.292859
-0.202694 -0.309078 0.343342
-0.232307 -0.258051 0.335372
-0.175528 -0.292260 -0.015830
-0.259784 -0.124879 -0.002023
-0.230880 -0.011708 0.296463
-0.230110 0.010377 0.264226
-0.235740 -0.085540 0.284967
-0.011684 -0.474373 0.714996
-0.044580 -0.456855 0.718575
-0.203240 0.051048 0.344901
-0.201580 0.083499 0.288867
-0.195886 0.098052 0.247304
-0.123560 0.138555 0.372354
-0.132515 0.138600 0.400541
-0.218691 0.173108 -0.064914
-0.150360 0.184073 -0.055592
-0.044795 0.183921 0.306095
-0.204182 0.060789 0.742281
-0.134650 -0.009797 0.851235
-0.141798 0.009059 0.837981
-0.214873 -0.003483 0.816177
-0.177102 0.019820 0.817944
-0.219131 -0.304241 0.781919
-0.277421 -0.280790 0.667616
-0.253641 -0.308347 0.693003
-0.119902 0.186362 0.578985
-0.183562 -0.322698 0.799669
-0.191975 -0.233446 0.887545
-0.134715 0.199748 0.476793
-0.056971 0.197062 0.062825
-0.065882 0.197565 0.079963
-0.292642 0.167107 0.457144
-0.259676 -0.174384 0.241326
-0.244985 -0.118424 0.280243
-0.270693 -0.291053 0.580710
-0.286043 -0.279414 0.628534
-0.227893 -0.378434 0.575033
-0.003696 -0.476154 0.469964
-0.072024 -0.459187 0.510806
-0.084604 -0.006017 -0.530401
-0.265161 0.152283 -0.422969
-0.209939 -0.130747 -0.464685
-0.159861 -0.119940 -0.437598
-0.180759 -0.172344 -0.287689
-0.208398 -0.045730 -0.147472
-0.187142 -0.111180 -0.197536
-0.099559 0.186592 -0.112454
0.201629 0.208404 0.596208
0.216929 -0.266811 0.830037
0.161047 -0.317784 0.873288
0.151547 0.117400 0.705169
0.093651 0.179547 0.497074
0.128274 0.215988 0.495677
0.124600 0.180131 0.442645
0.092302 0.188440 -0.031057
0.212072 0.118041 -0.047216
0.311597 -0.092122 0.575751
0.315353 -0.099870 0.615365
0.278277 0.017635 0.561391
0.252445 -0.101804 -0.002663
0.248451 -0.186711 0.384754
0.204482 -0.311960 0.318086
0.179427 -0.325043 0.206909
0.184403 -0.328427 0.232206
0.187701 -0.303631 0.247034
0.138992 -0.359270 0.119115
0.306250 -0.093804 -0.425208
0.224815 -0.162359 -0.317442
0.136941 -0.209176 -0.210623
0.225233 -0.079995 -0.222033
0.141147 0.251734 -0.421934
0.269345 0.162085 -0.281991
0.187434 0.052560 -0.140695
0.033237 -0.337923 -0.175435
0.121273 0.171516 -0.120563
0.164147 0.114445 -0.084434
0.194124 -0.126264 -0.182905
0.222334 -0.049972 -0.187221
0.063192 0.260932 -0.255642
0.066992 0.265836 -0.292961
0.196110 -0.142918 -0.288391
0.349612 -0.133010 -0.350711
0.150346 -0.144611 -0.435519
0.068979 0.229564 -0.565126
0.007491 0.207107 -0.598385
0.142318 -0.001549 -0.506889
0.104431 0.026910 -0.494991
0.012003 -0.462057 0.497494
0.229416 -0.363111 0.645301
0.224173 -0.345209 0.613500
0.265150 -0.272877 0.583700
0.281534 -0.268690 0.568394
0.265321 -0.269316 0.528234
0.259140 -0.204166 0.082853
0.255901 -0.167228 0.305309
0.244410 -0.195871 0.242372
0.264176 -0.061856 0.188762
0.267727 0.058244 0.650308
0.278266 0.035376 0.673781
0.286550 0.119982 0.559291
0.309097 0.175015 0.452966
0.080525 0.190451 0.113321
0.060814 0.200523 0.184546
0.017983 0.193086 0.204708
0.254005 0.170748 0.665782
0.262889 -0.120266 0.820881
0.255020 -0.090899 0.809558
0.204403 -0.177286 0.886171
0.059329 -0.346001 0.921794
0.171439 0.238848 -0.472369
-0.199156 0.007197 -0.107804
-0.198487 -0.013387 -0.093382
-0.129184 -0.205635 -0.296575
-0.107456 -0.222197 -0.285252
-0.088072 -0.277494 -0.194428
-0.087916 -0.252896 -0.224741
-0.263661 0.157211 -0.366948
-0.148461 -0.200501 -0.330740
-0.337719 -0.162629 -0.425210
-0.256927 -0.161319 -0.433436
-0.037878 -0.107112 -0.494788
-0.014381 0.260818 -0.462484
-0.071941 0.256118 -0.503845
-0.061357 0.235117 -0.581934
-0.219566 0.021215 -0.434197
-0.066664 0.110097 -0.540666
-0.394571 -0.076195 -0.357699
-0.008170 -0.484495 0.612778
-0.212784 -0.306300 0.421644
-0.222664 -0.364139 0.505736
-0.222456 -0.339426 0.468375
-0.281408 -0.180511 0.523530
-0.292975 -0.226198 0.651865
-0.313614 -0.206831 0.619232
-0.250959 -0.110417 -0.014313
-0.280765 -0.005655 0.598950
-0.299926 -0.122415 0.559310
-0.300283 -0.094357 0.560003
-0.289830 0.234166 0.530501
-0.225304 0.065302 0.200570
-0.262122 0.059756 0.173871
-0.215872 0.128514 0.431527
-0.133834 0.168074 0.169778
-0.060652 0.178792 0.559017
-0.064869 0.163203 0.573233
-0.251365 0.135658 0.684484
-0.067942 -0.004245 0.871908
-0.065691 0.064599 0.777843
-0.046486 0.039977 0.798207
-0.034505 0.066635 0.772886
-0.044257 -0.430869 0.788899
-0.012314 -0.413759 0.857441
-0.233999 -0.178557 0.834341
-0.244596 -0.091006 0.819683
-0.206776 0.175645 0.640028
-0.068880 0.177222 0.503186
-0.083596 0.159588 0.564958
-0.244224 0.209948 0.120440
-0.300828 0.214720 -0.003623
-0.236545 0.195319 -0.053410
-0.148151 0.147400 0.216024
-0.132217 0.137586 0.224321
-0.181510 0.078312 0.392544
-0.211101 0.060884 0.394762
-0.286601 0.080917 0.566814
-0.237181 -0.040871 0.404789
-0.250789 -0.122572 0.391120
-0.274746 -0.163098 0.133503
-0.260639 -0.176132 0.126934
-0.215439 -0.251648 0.077647
-0.206983 -0.276587 0.094696
-0.161698 -0.330197 0.080846
-0.234112 -0.273210 0.165814
-0.112891 -0.445847 0.613595
-0.190664 -0.382525 0.596935
-0.024695 -0.440225 0.346825
-0.102084 -0.446305 0.393584
-0.390771 -0.108684 -0.374313
-0.319790 -0.046334 -0.347432
-0.043151 0.158296 -0.594874
-0.254750 0.079802 -0.423297
-0.086983 -0.089502 -0.505729
-0.176003 -0.206206 -0.120335
-0.224389 0.215731 -0.413493
-0.059095 0.261421 -0.248309
-0.037169 0.229388 -0.209313
-0.001299 0.237173 -0.190710
-0.183356 -0.227443 -0.074610
0.097243 -0.231913 0.941326
0.048643 -0.113828 0.916059
0.049748 -0.139126 0.928609
0.201171 0.134779 0.706538
0.204026 0.148019 0.684441
0.082343 0.165788 0.457299
0.017795 0.145271 0.572152
0.125950 0.187826 0.121275
0.230349 0.196647 -0.071237
0.196847 0.126686 -0.036903
0.276542 0.127170 0.102721
0.197273 0.053405 0.471298
0.302601 -0.158469 0.701091
0.294502 -0.248518 0.711985
0.267083 -0.250475 0.761592
0.212833 -0.325430 0.404819
0.088239 -0.366584 0.014477
0.029953 0.065260 -0.531973
0.425787 -0.138157 -0.396080
0.381218 -0.171358 -0.387879
0.031274 -0.174013 -0.453245
0.070904 0.289905 -0.314155
0.034622 0.277242 -0.328665
0.054159 0.255658 -0.382696
0.264719 0.135701 -0.290477
0.251160 0.088361 -0.208552
0.174602 0.176023 -0.215420
0.008495 0.232730 -0.042782
0.175943 -0.198640 -0.114845
-0.000681 0.225183 -0.169317
0.116002 0.223189 -0.186833
0.118919 0.230299 -0.234988
0.082401 0.228429 -0.217471
0.179628 -0.153229 -0.183489
0.188961 -0.173458 -0.135996
0.247080 -0.137520 -0.310615
0.341425 -0.169467 -0.439110
0.054957 -0.131475 -0.477829
0.014492 0.257584 -0.481185
0.086518 -0.471220 0.599180
0.052244 -0.471987 0.615726
0.032680 -0.481537 0.619298
0.249660 -0.289684 0.518954
0.206691 -0.356593 0.438356
0.308162 -0.178413 0.582761
0.306706 -0.176664 0.626085
0.292810 -0.223832 0.507643
0.253698 -0.118013 0.427699
0.220159 -0.003774 0.388065
0.283551 0.046729 0.576079
0.237608 0.055468 0.174459
0.224880 0.098472 0.458883
0.194391 0.145867 0.403690
0.192497 0.163493 0.156985
0.108484 0.148594 0.604677
0.238311 0.233588 0.588739
0.095789 -0.354845 0.883003
0.098288 -0.403041 0.792194
0.138523 -0.389258 0.789355
0.127140 -0.387470 0.818214
0.108266 -0.311051 0.916546
-0.214666 -0.112894 -0.045944
-0.204155 -0.150114 -0.124103
-0.005762 -0.311943 -0.202178
-0.364055 -0.053106 -0.308050
-0.034009 0.092957 -0.546112
-0.143246 -0.352936 0.030522
-0.077206 -0.361770 -0.042526
-0.220181 -0.314376 0.361598
-0.191236 -0.197066 -0.028971
-0.271059 -0.085470 0.240010
-0.243993 -0.064672 -0.024662
-0.274009 -0.240684 0.712751
-0.280854 -0.244321 0.675767
-0.305419 -0.221241 0.713649
-0.307503 -0.163630 0.723853
-0.277726 -0.100933 0.754817
-0.280098 -0.141905 0.716607
-0.295796 -0.112610 0.709257
-0.210598 0.154607 0.167439
-0.199199 0.127275 0.185854
-0.281137 0.160046 0.081745
-0.262956 0.199523 -0.067766
-0.117114 -0.374285 0.817141
-0.157809 -0.365921 0.818681
0.019891 -0.311251 0.947411
-0.114004 0.225464 -0.018410
-0.009409 -0.212963 0.950974
-0.024342 -0.189470 0.955576
-0.110575 -0.175695 0.935487
-0.061411 -0.178080 0.943707
-0.073778 -0.218595 0.947763
-0.111429 -0.032465 0.883741
-0.163138 -0.061424 0.884758
-0.121901 -0.100277 0.909136
-0.167969 -0.080741 0.896449
-0.152290 -0.135519 0.916601
-0.268854 0.231933 0.555224
-0.284296 0.172011 0.594859
-0.264553 0.170365 0.412413
-0.156526 0.148232 0.433796
-0.104726 0.200672 -0.014040
-0.304745 0.204203 0.014825
-0.309348 0.174363 -0.003761
-0.276156 0.164509 0.029719
-0.264236 0.137682 0.424282
-0.279097 0.111745 0.465320
-0.268927 0.086365 -0.001828
-0.293149 0.041577 0.103671
-0.289330 0.091243 0.076083
-0.274548 0.116675 0.592917
-0.282133 0.098405 0.614242
-0.268897 0.106115 0.641419
-0.260626 -0.037700 0.454955
-0.248166 -0.062876 0.451373
-0.274260 -0.086834 0.486332
-0.263238 -0.105477 0.480549
-0.276527 -0.056714 0.510126
-0.273628 -0.025208 0.520765
-0.273252 -0.056300 0.119007
-0.281960 -0.031416 0.148740
-0.268880 -0.066131 0.167714
-0.280064 -0.085604 0.151671
-0.258989 -0.133127 0.455249
-0.270351 -0.151969 0.419156
-0.258143 -0.190354 0.451191
-0.246013 -0.211752 0.401120
-0.277277 -0.233563 0.483626
-0.258603 -0.228166 0.456028
-0.297035 -0.149414 0.512288
-0.277400 -0.185680 0.486909
-0.206721 -0.235075 -0.006281
-0.133717 -0.432592 0.513171
-0.153125 -0.423824 0.488442
-0.174849 -0.394583 0.426338
-0.184029 -0.410392 0.452184
-0.115693 -0.435646 0.419460
-0.145472 -0.428788 0.422430
-0.037019 -0.435351 0.271150
-0.054445 -0.430892 0.249258
-0.025046 -0.438529 0.217591
-0.321971 -0.110190 -0.476538
-0.337524 -0.116211 -0.437654
-0.294139 -0.108223 -0.459043
-0.168172 -0.032094 -0.479395
-0.216227 -0.040337 -0.434615
-0.189117 -0.042193 -0.418431
-0.205498 0.116050 -0.479533
-0.123587 0.208040 -0.535569
-0.376346 -0.150911 -0.382500
-0.398431 -0.156824 -0.404569
-0.230959 -0.169527 -0.351984
-0.194477 -0.183063 -0.307626
-0.170520 -0.194922 -0.310193
-0.006552 -0.185400 -0.425369
-0.021930 -0.183403 -0.417570
-0.014959 -0.209489 -0.385736
-0.049743 -0.206634 -0.356530
-0.060223 -0.191582 -0.409669
-0.065167 -0.164622 -0.430305
-0.301345 -0.027603 -0.326591
-0.281006 -0.017805 -0.285544
-0.084318 0.262101 -0.352366
-0.034380 0.274218 -0.330624
-0.263075 0.092613 -0.204109
-0.252803 0.107878 -0.254486
-0.245146 0.148759 -0.238124
-0.274411 0.140732 -0.277815
-0.280669 0.117852 -0.259264
-0.211582 0.108929 -0.203238
-0.204933 0.131136 -0.174332
-0.024799 0.208558 -0.009103
-0.030344 0.209755 -0.070228
0.128674 0.202191 -0.051073
0.006464 -0.158569 0.930433
0.020723 -0.207574 0.942926
0.059768 -0.249052 0.971075
0.110110 -0.230061 0.948332
0.207112 -0.062334 0.865656
0.155100 -0.061388 0.898471
0.105808 -0.170539 0.950266
0.141375 -0.119562 0.939540
0.139726 -0.157477 0.935592
0.274827 0.217582 0.557693
0.270076 0.211370 0.571580
0.301714 0.184733 0.419625
0.089650 0.177314 0.049368
0.119982 0.228057 0.056156
0.122113 0.219347 0.036462
0.164138 0.166940 -0.054283
0.154384 0.143982 -0.069152
0.285153 0.130848 0.080736
0.280910 0.115444 0.037810
0.228597 0.008056 0.487511
0.231900 0.047050 0.478477
0.268643 0.091298 0.477197
0.279699 -0.096314 0.789933
0.293087 -0.056461 0.719571
0.287641 -0.071356 0.680320
0.299367 -0.086548 0.716074
0.292420 0.008306 0.650068
0.283760 -0.027111 0.642171
0.256971 0.017833 0.720045
0.272821 0.018859 0.712418
0.268146 -0.039633 0.057584
0.247162 -0.062913 0.020788
0.278028 0.029687 0.014992
0.280816 0.020997 0.051347
0.237552 -0.187141 0.208221
0.249905 -0.211931 0.192253
0.252401 -0.142729 0.190813
0.249472 -0.123370 0.193147
0.265292 -0.208467 0.049790
0.227466 -0.251583 0.021370
0.176009 -0.395541 0.415479
0.135474 -0.406778 0.389149
0.132060 -0.433287 0.398142
0.093763 -0.425323 0.325981
0.104722 -0.443496 0.370462
0.140349 -0.407759 0.366111
0.119261 -0.415879 0.306793
0.066488 -0.401810 0.147583
0.074526 -0.405077 0.189629
0.057426 -0.416521 0.125039
0.018699 -0.433676 0.160585
0.018402 -0.432933 0.138959
-0.003832 -0.416838 0.054819
0.012161 -0.418529 0.085488
0.045655 -0.414644 0.079564
0.050664 -0.402355 0.050371
0.323548 -0.095465 -0.437281
0.201169 -0.074879 -0.394318
0.236066 -0.025490 -0.371971
0.274396 -0.040437 -0.357803
0.240207 -0.057309 -0.379291
0.154607 0.050649 -0.505195
0.022414 -0.015123 -0.517532
0.038249 0.037696 -0.511573
0.216393 0.101366 -0.447012
0.116528 0.235369 -0.517204
0.272212 -0.127648 -0.495635
0.347608 -0.129657 -0.472563
0.143618 -0.179704 -0.412008
0.151400 -0.194062 -0.371629
0.179595 -0.166652 -0.400236
0.201098 -0.161661 -0.415455
0.242732 -0.167854 -0.415976
0.273930 -0.180635 -0.376063
0.208752 -0.188961 -0.385271
0.218375 -0.174273 -0.364119
0.142924 -0.132857 -0.440016
0.159887 -0.204830 -0.231049
0.089261 0.270805 -0.406549
0.079446 0.261204 -0.444697
0.056652 0.275188 -0.405559
-0.017919 0.279396 -0.394170
0.243200 0.003888 -0.217135
0.260614 -0.002494 -0.243912
0.255018 0.042481 -0.258611
0.248096 0.052638 -0.229685
0.213794 0.008548 -0.179241
0.215560 0.034213 -0.172935
0.215866 0.053462 -0.178625
0.010353 0.236288 -0.127026
0.057490 0.207331 -0.110902
0.074569 0.218766 -0.143162
0.170044 -0.269304 -0.074336
0.164422 -0.243275 -0.113551
0.205712 -0.162940 -0.052002
0.215021 -0.128688 -0.054083
0.192064 -0.124985 -0.073661
0.195677 -0.042740 -0.101927
0.205218 -0.082031 -0.081826
0.196930 -0.107909 -0.150103
0.207464 -0.056142 -0.130556
-0.006828 -0.298196 -0.264066
0.058207 -0.209718 -0.345831
0.062126 -0.245246 -0.292859
0.047620 -0.277709 -0.239641
0.060808 -0.278453 -0.260851
0.211918 0.210336 -0.331262
0.223102 0.205046 -0.378061
0.097327 0.259406 -0.460883
0.290626 -0.052918 -0.302264
0.305632 -0.108898 -0.317837
0.348277 -0.087222 -0.317957
0.384045 -0.113093 -0.337213
0.086844 0.205668 -0.586494
0.178576 0.170486 -0.492369
0.280626 0.096908 -0.400204
0.183670 -0.030579 -0.450037
0.189974 -0.017795 -0.430449
0.105092 0.130699 -0.517324
0.323233 -0.122635 -0.493943
0.298809 -0.085439 -0.472377
0.050452 -0.449088 0.293413
0.078432 -0.427019 0.280595
0.062004 -0.439746 0.264773
0.016973 -0.425800 0.209597
0.161158 -0.415774 0.511584
0.185621 -0.389801 0.490682
0.138462 -0.433632 0.516698
0.097496 -0.469576 0.546701
0.141278 -0.425426 0.550819
0.099232 -0.450352 0.466201
0.113619 -0.434230 0.435346
0.158983 -0.403157 0.446477
0.140395 -0.415166 0.468612
0.224627 -0.197293 -0.008964
0.218007 -0.219898 -0.015456
0.236362 -0.255851 0.422015
0.255781 -0.193373 0.453195
0.252772 -0.173685 0.414767
0.271562 -0.120565 0.486799
0.267093 -0.224881 0.485329
0.285408 -0.194494 0.499838
0.284514 -0.048789 0.121259
0.289385 -0.069171 0.096114
0.282309 -0.044339 0.149269
0.286482 0.018728 0.108190
0.277203 -0.019918 0.121663
0.253267 -0.092966 0.443836
0.262346 -0.095024 0.458194
0.227799 -0.057372 0.435100
0.237759 -0.020905 0.459873
0.275835 -0.015585 0.522160
0.248762 0.001844 0.496297
0.263476 -0.025597 0.510462
0.278501 -0.045100 0.529866
0.278599 0.144788 0.621895
0.266167 0.103369 0.642188
0.264699 0.069304 0.043399
0.280073 0.091696 -0.002888
0.291660 0.099252 0.111134
0.285278 0.094771 0.090276
0.265650 0.128657 0.441581
0.269404 0.136391 0.469228
0.201312 0.171657 -0.060699
0.164709 0.194990 -0.063866
0.012107 0.186148 0.372090
0.060062 0.184269 0.387442
0.005457 0.188152 0.423137
0.007576 0.166142 0.447382
0.086143 0.160132 0.449368
0.100536 0.150897 0.396955
0.133750 0.154904 0.679706
0.150988 0.188056 0.634343
0.010219 0.026941 0.796076
0.043108 0.071726 0.802821
0.071369 0.074128 0.761155
0.021551 0.003216 0.822059
0.050858 0.043575 0.813558
0.102704 -0.018272 0.883260
0.089584 0.038421 0.832878
0.116851 0.025187 0.811056
-0.000155 -0.420775 0.809278
0.003667 -0.436342 0.786914
0.073056 -0.425497 0.774375
0.071832 -0.397110 0.830560
-0.046261 0.214027 -0.106537
-0.094585 0.213037 -0.158664
-0.223234 0.090163 -0.168307
-0.198249 0.104056 -0.159838
-0.256806 -0.015566 -0.229769
-0.242700 0.051255 -0.239038
-0.074152 0.262163 -0.430578
-0.086688 0.268336 -0.419405
-0.036471 0.263450 -0.414433
-0.065177 -0.205312 -0.366777
-0.085189 -0.174935 -0.413310
-0.103246 -0.167097 -0.431952
-0.125929 -0.189221 -0.396823
-0.252099 -0.170983 -0.329752
-0.379997 -0.156115 -0.468973
-0.405751 -0.155796 -0.434061
-0.125062 0.232887 -0.487302
-0.029481 0.260158 -0.557537
-0.093304 0.217631 -0.596597
-0.227042 0.183245 -0.477022
-0.195073 0.160337 -0.500880
-0.235791 0.170689 -0.473375
-0.021562 -0.046857 -0.517030
-0.074166 -0.048186 -0.516618
-0.070579 0.075518 -0.515038
-0.311268 -0.099109 -0.385562
-0.423266 -0.118983 -0.438694
-0.352655 -0.107218 -0.426528
-0.370160 -0.122842 -0.472291
-0.085627 -0.413696 0.179108
-0.125312 -0.376522 0.190182
-0.094897 -0.416032 0.148518
-0.144527 -0.355402 0.094853
-0.119252 -0.362798 0.077664
-0.096519 -0.383451 0.080778
-0.075938 -0.392879 0.048154
-0.175336 -0.353528 0.223693
-0.194945 -0.325362 0.258154
-0.191934 -0.317954 0.232858
-0.185349 -0.345140 0.238077
-0.162025 -0.377388 0.284805
-0.239150 -0.262220 0.311795
-0.219849 -0.274812 0.301234
-0.192242 -0.295625 0.270721
-0.236671 -0.278583 0.260556
-0.245963 -0.218967 0.353097
-0.228523 -0.250705 0.380110
-0.244654 -0.235321 0.370740
-0.243537 -0.159255 0.385097
-0.261057 -0.082651 -0.000394
-0.274045 -0.050832 0.034635
-0.286601 -0.057828 0.055121
-0.285328 -0.005949 0.044908
-0.297123 -0.029863 0.094735
-0.276376 0.014627 0.034006
-0.290428 0.053662 0.058514
-0.332896 -0.095377 0.670998
-0.292923 -0.054850 0.685345
-0.296583 -0.081696 0.695267
-0.264309 0.010527 0.713415
-0.291687 -0.003704 0.701276
-0.285471 0.025610 0.644141
-0.284389 0.141684 0.593577
-0.233949 0.091352 -0.037956
-0.255697 0.079685 -0.005265
-0.177107 0.091234 -0.041827
-0.021397 0.191194 0.218128
-0.058301 0.204208 0.163718
-0.012175 0.202795 0.159104
-0.093523 0.183828 0.128455
-0.059051 0.180716 0.121238
-0.137429 0.163481 0.648680
-0.136860 0.179643 0.614265
-0.220303 -0.054548 0.829949
-0.244779 -0.055944 0.807163
-0.222830 0.032518 0.773176
-0.260721 -0.047413 0.760953
-0.281107 -0.056831 0.777298
-0.006815 -0.022153 0.872450
-0.015998 -0.046103 0.900996
-0.049082 -0.036047 0.879510
-0.039665 -0.070343 0.897288
-0.080626 -0.044956 0.898400
-0.153703 -0.182647 0.935507
-0.158680 -0.214005 0.913545
-0.111373 -0.200698 0.954646
0.012431 -0.256894 0.949879
-0.149404 0.220290 -0.513793
-0.154871 0.215159 -0.470211
-0.042783 -0.377265 0.902041
-0.100368 -0.118148 0.936568
-0.082477 -0.103276 0.928145
-0.032198 -0.115793 0.930980
-0.226369 0.192734 0.626001
-0.237504 0.166164 0.676774
-0.208753 0.157444 0.684602
-0.003482 0.075504 0.751271
-0.053060 0.084621 0.753323
-0.046174 0.111317 0.701442
-0.018610 0.116506 0.648655
-0.099776 0.163696 0.604687
-0.091570 0.148825 0.637315
-0.100971 0.151984 0.658173
-0.094348 0.112452 0.680279
-0.010273 0.180999 0.396376
-0.063575 0.179933 0.370484
-0.089989 0.174990 0.357720
-0.054116 0.176576 0.402889
-0.086665 0.166997 0.426173
-0.064413 0.184746 0.441505
-0.090163 0.170246 -0.086202
-0.130189 0.169806 -0.076061
-0.280027 0.134144 0.059165
-0.268042 0.113328 0.073005
-0.233760 0.039323 0.462199
-0.259746 0.058623 0.489392
-0.070368 -0.441290 0.776867
-0.112242 -0.432194 0.765233
-0.139949 -0.409280 0.777147
-0.200556 -0.367321 0.664942
-0.195371 -0.375182 0.701416
-0.160079 -0.408116 0.697063
-0.136101 -0.425030 0.700504
-0.102476 -0.446260 0.696274
-0.256533 -0.215236 0.145911
-0.237306 -0.218479 0.162031
-0.244032 -0.205931 0.222707
-0.252905 -0.169232 0.219609
-0.262182 -0.108717 0.224894
-0.254433 -0.175181 0.044651
-0.235140 -0.197896 0.025957
-0.123778 -0.415504 0.401236
-0.149097 -0.405093 0.404032
-0.167053 -0.394040 0.337858
-0.164700 -0.394089 0.361124
-0.006387 -0.416242 0.166445
-0.056114 -0.421133 0.153613
-0.061700 -0.426185 0.211102
-0.033272 -0.403706 0.075164
-0.032887 -0.419966 0.101040
-0.248481 -0.036746 -0.374807
-0.253389 -0.077228 -0.387705
-0.146336 0.027303 -0.500777
-0.052430 0.046510 -0.524108
-0.201421 0.098684 -0.453604
-0.081776 0.233417 -0.544765
-0.090213 0.235040 -0.525563
-0.267265 -0.163097 -0.468751
-0.257697 -0.141776 -0.499558
-0.298836 -0.145625 -0.481941
-0.191847 -0.177167 -0.399307
-0.155838 -0.199017 -0.371940
-0.149376 -0.234797 -0.195665
-0.234199 -0.087953 -0.262815
-0.206325 -0.104794 -0.226886
-0.245250 -0.043660 -0.234113
-0.167915 0.244259 -0.411593
-0.151242 0.242265 -0.383926
-0.120650 0.265405 -0.377462
-0.246503 0.186178 -0.345581
-0.251836 0.169644 -0.291818
-0.244949 0.180820 -0.270497
-0.235574 -0.002826 -0.176636
-0.195370 0.000460 -0.143440
-0.015405 -0.331815 -0.169623
-0.010824 -0.366659 -0.121150
-0.064369 -0.352274 -0.064359
-0.065810 -0.330286 -0.136362
-0.197237 -0.030558 -0.063372
-0.189191 0.015503 -0.053587
0.090683 -0.356094 0.888583
0.075876 -0.336877 0.917873
0.126350 -0.322000 0.898497
0.019305 -0.038450 0.899131
0.055865 -0.035165 0.872599
0.056255 -0.077507 0.911525
0.028629 -0.055112 0.905910
0.220250 0.048637 0.766814
0.235463 0.019951 0.774274
0.250044 0.001461 0.788783
0.252219 -0.033043 0.805657
0.253024 -0.031627 0.758316
-0.003712 0.117590 0.665392
0.007629 0.136124 0.631298
0.027469 0.105396 0.642393
0.012064 0.104711 0.707872
0.063117 0.083994 0.736453
0.106978 0.105554 0.714123
0.084646 0.116837 0.680816
0.099232 0.139993 0.659244
0.290085 0.221031 0.022315
0.240408 0.192562 0.096161
0.108760 0.139421 0.367461
0.119867 0.133357 0.408945
0.172066 0.125407 0.406277
0.186824 0.117152 0.208129
0.211900 0.084443 0.210598
0.192823 0.090517 0.240435
0.174902 0.103714 0.298937
0.173924 0.093046 0.362428
0.217502 0.032433 0.322601
0.219190 0.069488 0.292275
0.222646 0.034763 0.255706
0.074809 -0.422175 0.772734
0.048672 -0.440978 0.763670
0.057234 -0.451976 0.726434
0.019048 -0.447354 0.720211
0.016597 -0.442538 0.746363
0.018077 -0.471482 0.695611
0.053311 -0.458232 0.702205
0.239525 -0.100181 0.244230
0.243444 -0.044444 0.251055
0.217525 0.007979 0.327066
0.253052 -0.032064 0.307043
0.241529 -0.077393 0.322032
0.253277 -0.176140 0.044649
0.271532 -0.126329 0.028988
0.269601 -0.091577 0.035470
0.175727 -0.251434 -0.027150
0.200620 -0.238417 -0.035992
0.182835 -0.350319 0.345507
0.219143 -0.250760 0.342214
0.216860 -0.287004 0.349748
0.151105 -0.370466 0.291190
0.126646 -0.400444 0.302086
0.115934 -0.410057 0.236468
0.118030 -0.397700 0.253784
0.126748 -0.378803 0.226001
0.064491 -0.373868 0.000975
0.038056 -0.409148 0.027122
-0.004708 -0.395299 -0.051011
0.009184 -0.398069 -0.018093
0.029261 -0.384412 -0.059535
0.302188 -0.085924 -0.366722
0.350823 -0.071860 -0.367739
0.087531 0.172668 -0.603984
0.072419 0.125613 -0.572659
0.256509 0.014874 -0.380834
0.118425 0.175458 -0.539989
0.068093 0.248751 -0.535019
0.099068 -0.105696 -0.485983
0.112826 -0.097252 -0.506997
0.151233 -0.017412 -0.508959
0.143952 -0.051821 -0.484035
0.307836 -0.145270 -0.354768
0.326906 -0.170180 -0.363035
0.296806 -0.163521 -0.383832
0.280233 -0.117945 -0.301683
0.260027 -0.068714 -0.266932
0.277010 -0.077676 -0.284907
0.274800 -0.023842 -0.276211
0.199820 -0.144670 -0.203907
0.257411 0.044551 -0.302859
0.248152 0.188127 -0.431704
0.215582 0.220280 -0.426034
0.227332 0.173509 -0.233592
0.193236 0.192743 -0.244563
0.224347 0.222898 -0.281683
0.143228 0.236957 -0.280708
0.141046 0.210937 -0.196380
0.223247 0.112835 -0.197999
0.203468 0.149308 -0.185093
0.080889 -0.349027 -0.084781
0.066148 -0.335970 -0.119230
0.137711 -0.267943 -0.113169
0.118675 -0.286032 -0.138840
0.139049 -0.293955 -0.088491
0.202959 0.060407 -0.053056
0.205024 0.018828 -0.078270
0.213255 0.034879 -0.123124
0.085162 -0.280420 -0.218697
0.079644 -0.282314 -0.195528
0.087004 -0.215956 -0.325129
0.102515 -0.234639 -0.258942
0.201938 0.238513 -0.309009
0.146639 0.252159 -0.341300
0.167301 0.259246 -0.377860
0.171978 0.244054 -0.329093
0.147128 0.253063 -0.325173
0.263256 0.125170 -0.366075
0.259803 0.169609 -0.338311
0.084241 -0.190582 -0.368731
0.084640 -0.223746 -0.357251
0.096567 -0.214338 -0.336208
0.135513 -0.180170 -0.307914
0.123769 -0.203719 -0.278065
0.097587 -0.183582 -0.410530
0.098772 -0.150014 -0.441484
0.404870 -0.139232 -0.361659
0.026319 -0.113355 -0.500325
0.062288 -0.101928 -0.516951
0.126303 0.236645 -0.503325
0.034250 0.249286 -0.563056
0.275780 0.037756 -0.366763
0.245151 0.085084 -0.391398
0.239443 0.062664 -0.407664
0.038346 0.097458 -0.559831
0.054769 0.157336 -0.610909
0.048850 0.112230 -0.569682
0.189111 0.037434 -0.482742
0.408907 -0.123759 -0.335816
0.079581 -0.441503 0.384850
0.029332 -0.452117 0.388422
0.017938 -0.443140 0.313672
0.006633 -0.433452 0.348700
0.071828 -0.435386 0.332359
0.153545 -0.423317 0.654059
0.203491 -0.376111 0.654036
0.200687 -0.392980 0.601355
0.128708 -0.431629 0.661995
0.133933 -0.442486 0.612256
0.103774 -0.454352 0.578985
0.131409 -0.434700 0.566438
0.167879 -0.427587 0.547176
0.174703 -0.343089 0.187212
0.190591 -0.332397 0.129763
0.207865 -0.308810 0.150232
0.136556 -0.349182 0.062766
0.167686 -0.329349 0.102696
0.208054 -0.250656 0.085633
0.206099 -0.286950 0.045396
0.201970 -0.294502 0.127646
0.202374 -0.295410 0.091677
0.217374 -0.249274 0.154403
0.225461 -0.240387 0.185810
0.233321 -0.231934 0.118453
0.275112 -0.176719 0.144071
0.264448 -0.182216 0.091775
0.286041 -0.103858 0.106096
0.283882 -0.086047 0.155276
0.178023 0.065760 -0.051504
0.187714 -0.372824 0.759826
0.143430 -0.416217 0.705457
0.157280 -0.414699 0.706691
0.170821 -0.405378 0.680580
0.209576 0.040244 0.371700
0.206785 0.061768 0.370816
0.184589 0.073433 0.434130
0.117008 0.148754 0.262823
0.142064 0.142439 0.220077
0.133562 0.137873 0.253024
0.138594 0.146824 0.304359
0.159539 0.114008 0.342495
0.157381 0.124427 0.297966
0.184013 0.114319 0.249902
0.114760 0.171969 -0.067072
0.193578 0.202444 -0.075799
0.025752 0.195092 0.246544
0.041794 0.199417 0.253739
0.034947 0.188914 0.291640
0.097743 0.153626 0.311356
0.061752 0.175523 0.301950
0.120446 0.165020 0.275257
0.086440 0.173521 0.209348
0.240552 0.178727 0.373324
0.268718 0.092904 0.700122
0.231163 0.082728 0.730147
0.239406 0.056267 0.739343
0.188141 0.049326 0.765652
0.185422 0.057479 0.783245
0.125660 -0.012424 0.866938
0.126850 -0.037171 0.881304
0.181605 -0.044376 0.885776
0.166260 -0.012402 0.836124
0.034236 -0.376252 0.888112
0.275889 -0.271685 0.651363
0.269266 -0.264215 0.708088
0.265806 -0.300392 0.676795
0.255938 -0.248997 0.768270
0.189677 -0.336061 0.778839
0.216067 -0.328269 0.760265
0.206156 -0.339591 0.725265
0.248472 -0.312156 0.724997
-0.075316 -0.305564 -0.152065
-0.089143 -0.330934 -0.103103
-0.135838 -0.313149 -0.065449
-0.169384 0.175151 -0.172597
-0.195065 0.148601 -0.187075
-0.147202 0.187378 -0.176907
-0.160933 0.209974 -0.211999
-0.196148 0.216233 -0.311354
-0.171324 0.211426 -0.270002
-0.196417 0.186089 -0.273323
-0.150802 0.218836 -0.214537
-0.143123 0.244212 -0.270201
-0.257532 0.192417 -0.446999
-0.196200 0.219491 -0.430171
-0.169530 0.238975 -0.424603
-0.272520 0.054929 -0.350506
-0.273435 0.068697 -0.317127
-0.282150 0.098921 -0.294528
-0.188006 -0.170669 -0.231168
-0.303483 -0.108341 -0.301205
-0.307594 -0.123507 -0.348941
-0.339678 -0.159246 -0.372357
-0.134117 -0.064363 -0.474599
-0.146901 -0.051949 -0.508830
-0.132858 0.124216 -0.525013
-0.245931 0.012484 -0.370518
-0.057025 0.158287 -0.590706
-0.226586 0.049980 -0.453217
-0.276626 -0.088042 -0.386631
-0.327925 -0.066285 -0.358588
-0.011205 -0.397491 0.026868
-0.048906 -0.390789 0.019179
-0.039522 -0.392983 -0.059065
-0.050022 -0.377000 -0.000575
-0.121069 -0.408473 0.314789
-0.140624 -0.402360 0.272482
-0.150379 -0.382196 0.197170
-0.139750 -0.380436 0.256694
-0.124267 -0.419410 0.220084
-0.178216 -0.358921 0.322458
-0.212242 -0.329592 0.358352
-0.174799 -0.371294 0.391285
-0.193484 -0.363877 0.375598
-0.157759 -0.312233 -0.026692
-0.175429 -0.317934 0.016083
-0.201577 -0.277728 0.018901
-0.264280 -0.151384 0.043801
-0.255477 -0.190503 0.029794
-0.278742 -0.099859 0.057940
-0.284338 -0.139289 0.078776
-0.258481 -0.108607 0.030839
-0.247390 -0.014276 0.213815
-0.254808 -0.015604 0.256800
-0.260782 -0.100041 0.355171
-0.262420 -0.112891 0.329477
-0.245473 -0.046944 0.350167
-0.247201 -0.047159 0.308561
-0.235234 -0.000929 0.317858
-0.081768 -0.466717 0.672475
-0.049718 -0.463416 0.700173
-0.020421 -0.458418 0.671970
-0.186887 0.084351 0.311966
-0.197982 0.123447 0.227682
-0.176652 0.113690 0.270001
-0.222225 0.061456 0.256458
-0.221930 0.056636 0.290626
-0.215771 0.041440 0.312598
-0.121570 0.154091 0.426212
-0.161140 0.105689 0.340450
-0.150408 0.112685 0.393108
-0.186359 0.169101 -0.072025
-0.003303 0.194862 0.305757
-0.013947 0.186940 0.337538
-0.000860 0.200168 0.233108
-0.025822 0.201387 0.254761
-0.082905 0.148196 0.259888
-0.062147 0.181010 0.228558
-0.063592 0.179682 0.261029
-0.078430 0.180198 0.283685
-0.078731 0.164692 0.321656
-0.234584 0.160987 0.397229
-0.260302 0.084882 0.714965
-0.246950 0.047807 0.732760
-0.126663 0.044410 0.787024
-0.184855 0.078366 0.783852
-0.156196 0.032157 0.812016
-0.180009 0.050623 0.802734
-0.206563 -0.068490 0.857429
-0.195372 -0.034456 0.838122
-0.178793 -0.005250 0.851372
-0.167381 -0.051168 0.870018
-0.183743 0.012689 0.832844
-0.056797 -0.378856 0.852269
-0.019240 -0.375220 0.867886
-0.242308 -0.231571 0.795588
-0.260749 -0.253199 0.750101
-0.248839 -0.278065 0.765416
-0.261725 -0.278135 0.734269
-0.195486 -0.353071 0.687418
-0.231350 -0.320355 0.724494
-0.228085 -0.339373 0.694303
-0.210541 -0.340851 0.777510
-0.228087 -0.347005 0.737724
0.011271 -0.373227 0.917720
-0.158120 0.179453 0.616105
-0.136156 0.180305 0.551404
-0.151651 0.215661 0.560273
-0.185026 0.239098 0.588635
-0.142324 -0.268418 0.917813
-0.111882 -0.267979 0.943867
-0.075109 -0.251231 0.959083
-0.180242 -0.273558 0.878631
-0.169351 -0.251063 0.880828
-0.149326 -0.240492 0.901623
-0.242174 -0.223474 0.837805
-0.213655 -0.225666 0.860296
-0.224527 -0.232068 0.826116
-0.192780 -0.233774 0.864979
-0.213665 -0.273003 0.808676
-0.193542 -0.294035 0.826611
-0.199094 -0.307434 0.816000
-0.172131 0.123443 0.701473
-0.209738 0.100364 0.717494
-0.223247 0.087513 0.733241
-0.166450 0.096152 0.732839
-0.121481 0.210954 0.521839
-0.119122 0.185392 0.513272
-0.114333 0.183543 0.465273
-0.136195 0.208936 0.425835
-0.138344 0.182225 0.418937
-0.004568 0.213984 0.053619
-0.024835 0.215723 0.090412
-0.073148 0.187379 -0.017883
-0.055937 0.218427 0.021410
-0.073834 0.184812 0.024302
-0.175104 0.151586 -0.051050
-0.209829 0.118390 -0.046154
-0.255408 0.151425 -0.029772
-0.234068 0.119214 -0.030394
-0.301227 0.110418 0.528175
-0.271893 0.133340 0.510004
-0.299496 0.165629 0.497346
-0.278278 0.081181 0.691170
-0.275922 0.033877 0.692366
-0.268667 0.057055 0.668307
-0.256816 0.016639 0.194798
-0.271457 -0.006401 0.182046
-0.284657 0.008074 0.141221
-0.239124 -0.221712 0.252785
-0.249040 -0.190983 0.246752
-0.237378 -0.222271 0.268591
-0.253742 -0.199545 0.298838
-0.233457 -0.240631 0.307693
-0.257863 -0.106065 0.361472
-0.251181 -0.164136 0.314751
-0.254838 -0.136201 0.272585
-0.257737 -0.118866 0.289114
-0.247492 -0.225413 0.121965
-0.238157 -0.230275 0.085141
-0.259209 -0.211604 0.101861
-0.261625 -0.291512 0.518109
-0.254462 -0.326288 0.550486
-0.237194 -0.346989 0.522837
-0.242280 -0.337604 0.540961
-0.246353 -0.364737 0.659965
-0.241485 -0.346957 0.624365
-0.238024 -0.342163 0.598398
-0.253963 -0.282778 0.646405
-0.254181 -0.335074 0.618300
-0.023456 -0.476169 0.534141
-0.034255 -0.463358 0.532297
-0.082235 -0.450405 0.450573
-0.068063 -0.461659 0.490984
-0.050958 -0.463057 0.439700
-0.349288 -0.091316 -0.385126
-0.244208 -0.101342 -0.430244
-0.070573 0.038714 -0.506090
-0.127544 0.039399 -0.498273
-0.108354 -0.024647 -0.523358
-0.136264 0.009497 -0.532982
-0.243246 0.147759 -0.456845
-0.111130 0.252258 -0.483293
-0.183598 -0.101966 -0.470350
-0.156034 -0.175412 -0.424341
-0.176501 -0.157977 -0.440661
-0.198519 -0.162188 -0.449040
-0.326488 -0.108995 -0.333537
-0.349757 -0.100076 -0.350109
-0.163488 -0.176049 -0.262998
-0.225749 -0.102740 -0.259189
-0.201462 -0.137319 -0.256223
-0.153158 0.228988 -0.443183
-0.127803 0.248085 -0.436300
-0.124299 0.259893 -0.335751
-0.087768 0.274606 -0.285801
-0.121234 0.250957 -0.288079
-0.077548 0.252648 -0.273090
-0.033711 0.259197 -0.271339
-0.233262 -0.033891 -0.174501
-0.208493 -0.081529 -0.199529
-0.196347 -0.112655 -0.181507
-0.194138 -0.098077 -0.162695
-0.192074 -0.052614 -0.161169
-0.187229 0.117051 -0.066753
-0.171092 0.150724 -0.091078
-0.110693 0.206383 -0.189854
-0.126637 0.199043 -0.147620
-0.159362 0.171673 -0.140340
-0.155520 0.141180 -0.128712
0.103209 0.191962 0.587293
0.139801 0.206377 0.577913
0.168932 0.222718 0.576527
0.120033 -0.276229 0.929278
0.130546 -0.236725 0.944485
0.167162 -0.236022 0.908967
0.180251 -0.221538 0.899905
0.171156 -0.206987 0.913666
0.193594 -0.251991 0.875158
0.158696 -0.280567 0.894251
0.168511 -0.274756 0.878390
0.206532 -0.303531 0.799355
0.186742 -0.337571 0.787085
0.188171 -0.305047 0.824587
0.187157 -0.271738 0.865665
0.245187 -0.286245 0.790333
0.214938 -0.276648 0.833496
0.244154 -0.253640 0.804075
0.215426 0.091869 0.708052
0.158399 0.091319 0.749180
0.160226 0.100424 0.730124
0.101449 0.176906 0.546225
0.112524 0.193788 0.537699
0.132672 0.204877 0.469436
0.132441 0.201682 0.424654
-0.000233 0.216260 0.015829
0.014555 0.204711 0.045634
0.047839 0.219941 0.019196
0.040100 0.205484 0.008652
0.051306 0.190632 0.063571
0.044288 0.190623 0.084281
0.101965 0.205817 0.003533
0.184939 0.098857 -0.055405
0.226964 0.074115 -0.024201
0.294245 0.137809 0.576697
0.303869 0.176156 0.532476
0.283023 0.219603 0.527062
0.291932 0.194761 0.599339
0.306413 -0.101562 0.531566
0.301290 -0.131464 0.550492
0.286980 -0.119385 0.523481
0.306051 -0.034403 0.581594
0.281660 -0.014539 0.608492
0.310416 -0.063577 0.610745
0.226053 -0.141906 -0.014731
0.219721 -0.259471 0.378660
0.258706 -0.209560 0.391743
0.228843 -0.227452 0.374234
0.247767 -0.119438 0.362570
0.241699 -0.191674 0.331583
0.247487 -0.153636 0.356148
0.187019 -0.322261 0.290906
0.174968 -0.336681 0.282454
0.156837 -0.357709 0.252187
0.215467 -0.263124 0.276045
0.215791 -0.285443 0.240533
0.218689 -0.277081 0.287136
0.149319 -0.371407 0.164614
0.133966 -0.398355 0.199367
0.123380 -0.380765 0.132336
0.119480 -0.393830 0.168885
0.098863 -0.400829 0.190211
0.077896 -0.420999 0.115968
0.080191 -0.390710 0.056836
0.117410 -0.398951 0.085115
0.100593 -0.382399 0.106256
0.121697 -0.353706 0.062443
0.434739 -0.127603 -0.469512
0.350402 -0.121291 -0.451459
0.386308 -0.123824 -0.417590
0.250509 -0.084832 -0.425985
0.233896 -0.096551 -0.461503
0.188725 -0.093636 -0.472519
0.065917 0.095787 -0.549819
0.097839 0.062297 -0.491075
-0.003584 -0.083785 -0.501376
0.041798 -0.092051 -0.494995
0.049789 -0.007914 -0.525549
0.060708 -0.032469 -0.518436
0.231046 0.163759 -0.463348
0.379513 -0.147776 -0.438048
0.409186 -0.144230 -0.439371
0.262469 -0.160257 -0.331569
0.287253 -0.129993 -0.324913
0.144811 -0.208470 -0.191115
0.258965 -0.049428 -0.275344
0.242476 -0.032310 -0.219506
0.180662 0.239792 -0.438747
0.142240 0.257615 -0.382224
0.269218 0.135193 -0.307600
0.267626 0.184692 -0.320882
0.243649 0.193485 -0.312449
0.215469 0.008180 -0.138317
0.208443 0.092675 -0.166255
0.015853 -0.379966 -0.107087
0.005946 -0.335024 -0.164414
0.050670 -0.304194 -0.183671
0.047792 -0.339156 -0.127376
0.036516 -0.352144 -0.097270
0.218169 -0.042132 -0.044174
0.102965 0.187098 -0.092092
0.120059 0.167134 -0.096549
0.151695 0.153712 -0.109860
0.196432 0.107089 -0.141866
0.179640 0.151662 -0.156911
0.161253 0.168090 -0.168331
0.209073 -0.110320 -0.197848
0.204762 -0.088840 -0.187422
0.126947 0.254427 -0.255249
0.091816 0.243214 -0.264454
0.119632 0.278030 -0.331392
0.038312 0.250343 -0.307825
-0.008502 0.262801 -0.289956
0.018695 0.253311 -0.259314
0.093537 0.263777 -0.425379
0.232987 -0.095362 -0.245381
0.185125 -0.143086 -0.238151
0.168864 -0.167954 -0.282238
0.156914 -0.114272 -0.448674
0.192835 -0.130404 -0.475797
0.212176 -0.176744 -0.433848
0.230068 -0.149013 -0.458226
0.085508 0.250982 -0.520140
0.042332 0.226069 -0.588284
0.263883 0.129711 -0.423552
0.259173 0.104333 -0.447348
0.085617 -0.018982 -0.520685
0.103154 0.015883 -0.525959
0.055511 0.032979 -0.512162
0.234733 -0.090907 -0.420813
0.363717 -0.093641 -0.392703
0.063883 -0.479763 0.522418
0.036557 -0.489252 0.528503
0.026736 -0.464873 0.441677
0.067129 -0.466297 0.443270
0.220668 -0.375626 0.533553
0.229952 -0.346796 0.553976
0.227703 -0.338100 0.532562
0.254428 -0.329781 0.558720
0.290375 -0.259626 0.625385
0.275119 -0.314851 0.619513
0.240587 -0.336550 0.647276
0.253007 -0.341264 0.598598
0.259065 -0.217673 0.113668
0.240854 -0.244353 0.086617
0.232160 -0.234634 0.324384
0.221797 -0.260551 0.298447
0.262043 -0.179339 0.314814
0.244611 -0.240030 0.234531
0.237862 -0.196927 0.266657
0.251160 -0.140686 0.235068
0.258448 -0.119620 0.323264
0.250154 -0.157139 0.284434
0.274049 0.018432 0.166312
0.254556 0.008647 0.189598
0.251958 -0.007822 0.215861
0.263197 0.069844 0.685426
0.277400 0.106327 0.510698
0.287932 0.119654 0.491711
0.321734 0.196271 0.475871
0.292132 0.171031 0.495823
0.288620 0.139479 0.513677
0.250350 0.152781 -0.046216
0.248177 0.111934 -0.028260
0.303570 0.191991 -0.027488
0.293252 0.200043 0.005304
0.286782 0.176947 -0.002938
0.001108 0.196676 0.121391
0.024778 0.205131 0.103012
0.044233 0.206861 0.122326
0.013991 0.189864 0.157558
0.084971 0.193741 0.202617
0.056286 0.173498 0.128863
0.095743 0.198085 0.141642
0.163066 0.187529 0.392851
0.311049 0.169310 0.431631
0.243718 0.129285 0.674525
0.251353 0.141761 0.665775
0.274092 0.086104 0.666557
0.228210 -0.065744 0.827467
0.222120 -0.087615 0.845210
0.244062 -0.122615 0.827140
0.231526 -0.117553 0.861113
0.228207 -0.135548 0.897303
0.221658 -0.167780 0.876311
0.256488 -0.217195 0.780959
0.221322 -0.198526 0.836475
0.222758 -0.213504 0.852310
0.251609 -0.161389 0.824951
0.265793 -0.148523 0.817483
0.148433 0.219439 -0.496861
-0.158543 -0.246419 -0.106446
-0.164662 -0.240908 -0.075239
-0.175579 -0.281719 -0.056953
-0.207043 -0.006022 -0.073906
-0.203416 0.036562 -0.078622
-0.195044 0.067123 -0.058967
-0.185642 0.075197 -0.125150
-0.176468 0.087895 -0.096843
-0.191658 0.044463 -0.120255
-0.076544 -0.232120 -0.305701
-0.072618 -0.229969 -0.316989
-0.069279 -0.266997 -0.275842
-0.103253 -0.275348 -0.164244
-0.111146 -0.248203 -0.196603
-0.105834 -0.256333 -0.244041
-0.199141 0.242130 -0.360678
-0.198344 0.226966 -0.333777
-0.152997 0.245392 -0.307235
-0.167578 0.240462 -0.312201
-0.274454 0.117920 -0.364162
-0.274840 0.128032 -0.329931
-0.104570 -0.212436 -0.350483
-0.135068 -0.195419 -0.305809
-0.112541 -0.207075 -0.308759
-0.147916 -0.091777 -0.475141
-0.136668 -0.123988 -0.448185
-0.096071 -0.129121 -0.455919
-0.341355 -0.145447 -0.475855
-0.289553 -0.171495 -0.439140
-0.272628 -0.175830 -0.376063
-0.303246 -0.177539 -0.394035
-0.004364 -0.138876 -0.480957
-0.030183 0.255962 -0.485237
-0.090126 0.267033 -0.474531
-0.043183 0.270689 -0.470367
-0.020809 0.231477 -0.578478
0.001209 0.168896 -0.595950
-0.150626 0.119794 -0.479379
-0.183350 0.135420 -0.477994
-0.212306 0.001948 -0.418249
-0.074063 0.132853 -0.554692
-0.256768 -0.109339 -0.491478
-0.219489 -0.087712 -0.472941
-0.012717 -0.483847 0.624435
-0.053002 -0.463583 0.636190
-0.074439 -0.471234 0.550300
-0.070506 -0.476709 0.612538
-0.055595 -0.475488 0.582420
-0.047360 -0.478930 0.620118
-0.194730 -0.369950 0.456801
-0.225083 -0.336895 0.449880
-0.208657 -0.332417 0.419300
-0.256309 -0.277867 0.501460
-0.232828 -0.303080 0.485075
-0.242692 -0.279996 0.455263
-0.223182 -0.290767 0.438601
-0.291462 -0.268376 0.524527
-0.320237 -0.215820 0.564866
-0.292477 -0.234498 0.566590
-0.302175 -0.205659 0.533593
-0.277870 -0.250760 0.570163
-0.301935 -0.231461 0.591021
-0.326101 -0.154851 0.627354
-0.289526 -0.175660 0.618048
-0.320448 -0.153817 0.570387
-0.297549 -0.177740 0.569008
-0.287960 -0.137135 0.534863
-0.226517 -0.149108 -0.039402
-0.226038 -0.152176 -0.024338
-0.289440 -0.024675 0.530840
-0.273900 -0.017510 0.573938
-0.296614 -0.126315 0.526290
-0.302786 -0.081269 0.545822
-0.294786 -0.064164 0.629734
-0.299649 -0.107057 0.629343
-0.303247 -0.105442 0.582411
-0.317528 -0.041870 0.596970
-0.299148 -0.022889 0.627838
-0.304994 0.195687 0.478898
-0.292404 0.145678 0.545378
-0.282022 0.039088 0.132357
-0.280324 0.075645 0.120800
-0.216374 0.101072 0.184630
-0.222743 0.092589 0.200349
-0.258280 0.110581 0.162473
-0.272214 0.086465 0.159712
-0.191172 0.150785 0.405797
-0.238530 0.134533 0.404292
-0.143477 0.147380 -0.058659
-0.175565 0.143691 -0.031491
-0.103782 0.179624 0.199252
-0.122191 0.174875 0.149557
-0.203514 0.186727 0.363606
-0.002727 0.157044 0.578393
-0.034110 0.142703 0.590938
-0.031973 0.182822 0.534849
-0.018564 0.157597 0.561571
-0.253579 0.188155 0.624774
-0.263084 0.157254 0.638553
-0.278380 0.103339 0.674666
-0.250012 0.112190 0.707744
-0.037321 -0.001740 0.866019
-0.006966 0.010582 0.844828
-0.011797 0.061952 0.781418
-0.099365 0.084576 0.761034
-0.106712 0.072416 0.779851
-0.077181 0.048038 0.824948
-0.100462 0.011010 0.843792
-0.088570 -0.012488 0.865212
-0.027815 -0.455878 0.782445
-0.011533 -0.442948 0.802005
-0.052134 -0.401546 0.822762
-0.085836 -0.441455 0.814735
-0.087111 -0.329871 0.897234
-0.075032 -0.331649 0.921089
-0.008515 -0.310163 0.941813
