-0.100157 0.190516 0.437752
-0.182855 0.235534 -0.102140
-0.234045 0.062621 0.470371
-0.130123 -0.456813 0.696506
-0.147531 -0.365964 0.722387
-0.162755 -0.337029 0.771771
-0.161280 -0.387842 0.777692
-0.160601 0.083728 -0.015395
-0.251018 -0.114393 0.186542
-0.146854 -0.358492 0.350460
-0.141768 -0.415797 0.386310
-0.026838 -0.394836 0.097813
-0.364246 -0.072637 -0.427446
0.011363 -0.020838 -0.538735
-0.388553 -0.106215 -0.468395
-0.263123 -0.170765 -0.415151
-0.151301 -0.153953 -0.357820
-0.158399 -0.260500 -0.178113
-0.196401 -0.099371 -0.246998
-0.125767 0.273964 -0.447696
-0.276073 0.142033 -0.277517
-0.204301 0.024249 -0.203523
-0.059170 -0.290241 -0.164967
-0.052028 -0.331928 -0.126514
0.045958 -0.361515 0.896539
0.118675 -0.064734 0.865876
0.101793 -0.089220 0.919260
0.265255 -0.035052 0.795021
0.076810 0.140517 0.623097
0.073332 0.061175 0.706916
0.309224 0.167520 0.091597
0.140882 0.130953 0.385674
0.168043 0.102329 0.418494
0.148328 0.123159 0.450921
0.242477 0.080163 0.225999
0.255118 0.062657 0.211177
0.047888 -0.478100 0.702558
0.052870 -0.483723 0.761231
0.276914 -0.093365 0.282882
0.227905 -0.014460 0.290032
0.249457 -0.043632 0.275392
0.282313 -0.134366 -0.004895
0.235387 -0.268278 0.017050
0.231617 -0.287153 0.344855
0.160355 -0.387162 0.254591
0.033904 -0.352594 -0.051400
0.039412 -0.426184 0.031233
0.239445 0.050579 -0.371081
0.073063 0.177401 -0.570804
0.127265 -0.067331 -0.455512
0.314911 -0.172832 -0.334316
0.384985 -0.181920 -0.409038
0.224821 -0.151678 -0.208215
0.281981 0.096231 -0.332818
0.295859 0.036291 -0.321944
0.194113 0.242519 -0.444581
0.188425 0.238459 -0.473634
0.155890 0.225812 -0.201880
0.180474 0.210371 -0.186412
0.162716 0.247778 -0.250410
0.193338 0.178380 -0.149759
0.122529 -0.326215 -0.171398
0.215285 0.069817 -0.111955
0.140141 -0.286857 -0.212544
0.119735 -0.203149 -0.317589
0.059991 -0.247438 -0.304474
0.145824 0.268072 -0.283606
0.256912 0.154545 -0.377527
0.086742 -0.233321 -0.302876
0.392883 -0.122590 -0.369629
0.245515 0.062382 -0.409868
0.236420 0.081002 -0.432249
0.388376 -0.086785 -0.358973
0.089603 -0.449934 0.380690
-0.008935 -0.466806 0.385640
0.212922 -0.411760 0.609099
0.105823 -0.430440 0.634632
0.136084 -0.431885 0.622443
0.229316 -0.266244 0.164273
0.212663 -0.259427 0.184611
0.278493 -0.166071 0.178097
0.301077 -0.126161 0.155259
0.077375 -0.396002 0.741091
0.133760 -0.403221 0.761976
0.230569 0.071953 0.406548
0.201755 0.109118 0.379096
0.168603 0.139741 0.245980
0.122674 0.114848 0.232589
0.151924 0.119382 0.294822
0.028012 0.217947 0.199970
0.008690 0.164558 0.297138
0.238917 0.002715 0.856162
0.164997 0.037485 0.801031
0.261821 -0.363720 0.676557
0.256950 -0.342384 0.712781
0.243726 -0.295158 0.765382
-0.242691 0.174225 -0.201774
-0.137232 0.210274 -0.270793
-0.211022 0.220141 -0.224809
-0.258274 0.109677 -0.318476
-0.211495 -0.125731 -0.198456
-0.277126 -0.191221 -0.336380
-0.119706 0.010757 -0.481428
-0.093700 -0.106265 -0.469018
-0.091750 0.198440 -0.520450
-0.204017 0.015865 -0.455812
-0.025511 -0.416828 -0.015099
-0.073354 -0.415810 -0.007115
-0.114467 -0.391169 0.211984
-0.157387 -0.389643 0.287424
-0.236527 -0.332862 0.331193
-0.262520 -0.033872 0.308999
-0.202303 0.046588 0.318119
-0.199724 0.043577 0.328740
-0.277155 -0.109281 0.261601
-0.226740 0.090969 0.278336
-0.189949 0.116719 0.221649
-0.234349 0.109830 0.264190
-0.177157 0.156145 0.398781
-0.177647 0.147745 -0.087894
-0.040821 0.148648 0.368245
-0.003475 0.167498 0.244635
-0.043616 0.162218 0.264505
-0.206163 0.051185 0.726745
-0.163116 -0.015938 0.816346
-0.189339 -0.008200 0.835721
-0.235351 -0.031121 0.843965
-0.246713 -0.328466 0.814206
-0.260497 -0.330704 0.733972
-0.258289 -0.295484 0.684264
-0.244826 -0.259252 0.712005
-0.241286 -0.327836 0.684512
-0.166295 -0.217748 0.897323
-0.225531 -0.205728 0.896559
-0.175705 0.144889 0.686539
-0.156636 0.236118 0.493183
-0.084584 0.174880 0.062679
-0.009942 0.235364 0.027635
-0.227754 0.141383 0.004761
-0.204671 0.153110 -0.022532
-0.250379 -0.013198 0.142815
-0.233577 -0.159483 0.244044
-0.215774 -0.262187 0.087320
-0.244679 -0.313679 0.585522
-0.259959 -0.292350 0.625334
-0.254288 -0.343734 0.548044
-0.188308 -0.352166 0.506803
-0.224076 -0.362257 0.598233
-0.046858 -0.497326 0.457616
-0.029944 -0.444564 0.442182
-0.102677 -0.472562 0.486597
-0.098734 -0.439054 0.546902
-0.358108 -0.084682 -0.392620
-0.135677 0.025714 -0.539667
-0.263821 -0.161137 -0.469414
-0.160815 -0.145320 -0.434231
-0.148645 -0.147717 -0.287193
-0.005433 0.239847 -0.274722
-0.104307 0.230647 -0.287814
-0.198795 -0.049735 -0.141577
0.191267 -0.243774 0.860037
0.159096 -0.284070 0.857843
0.191521 -0.294154 0.877427
0.204324 0.046185 0.736797
0.131387 0.150305 0.451494
0.106408 0.199068 0.504724
0.106087 0.240731 0.490914
0.113759 0.204712 0.408656
0.059308 0.217902 -0.061505
0.027526 0.229459 0.005333
0.001717 0.227339 0.110028
0.271675 0.100325 -0.036073
0.205880 0.139361 -0.053277
0.264593 0.126816 0.562180
0.280859 0.218701 0.507404
0.276630 -0.087435 0.589229
0.285730 -0.126835 0.631086
0.341625 -0.144095 0.643763
0.300124 -0.089450 0.557457
0.227540 -0.135302 -0.005035
0.227187 -0.174975 0.435001
0.213971 -0.201943 0.321324
0.234801 -0.220187 0.352674
0.228356 -0.340260 0.286422
0.157381 -0.307796 0.210073
0.167381 -0.339778 0.186325
0.198193 -0.299037 0.285888
0.159525 -0.385683 0.160857
0.165657 -0.337366 0.119654
0.056925 -0.385526 0.189033
0.067699 -0.374614 0.136719
0.100435 0.052824 -0.490850
0.171727 0.261124 -0.446261
0.421785 -0.130590 -0.400446
0.248191 -0.132317 -0.312251
0.251576 -0.079370 -0.224211
0.127399 0.257707 -0.398028
0.132513 0.219520 -0.412521
0.276601 0.151420 -0.317442
0.215883 0.061543 -0.170355
0.081872 -0.386994 -0.093681
0.228858 -0.070694 -0.049177
0.174183 -0.101594 -0.059862
0.100512 0.180190 -0.137471
0.093545 0.214460 -0.158820
0.172496 0.084271 -0.069367
0.220980 -0.095181 -0.205465
0.071516 0.280399 -0.269238
0.090470 0.227493 -0.472323
0.340111 -0.124623 -0.308491
0.358629 -0.088882 -0.347054
0.042508 0.195715 -0.566859
0.169758 -0.021861 -0.527004
0.095283 -0.435797 0.440908
0.030431 -0.502482 0.497084
-0.019863 -0.451483 0.522486
-0.019470 -0.457222 0.533238
0.211176 -0.346116 0.580681
0.261064 -0.337366 0.623503
0.256074 -0.301566 0.617603
0.272501 -0.219698 0.230981
0.241738 -0.093523 0.211154
0.295623 -0.012532 0.191312
0.311171 0.037506 0.656888
0.264576 0.139451 0.554813
0.322148 0.172858 0.506353
0.208713 0.163467 -0.049947
0.165780 0.116428 -0.066605
0.100008 0.205420 0.125908
0.036695 0.190011 0.218789
0.247753 0.171756 0.627185
0.282373 0.150544 0.667486
0.281910 0.240569 0.630299
0.285198 -0.097029 0.837390
0.263892 -0.171713 0.823190
0.165697 -0.192230 0.870253
0.044270 -0.396914 0.924998
0.123049 0.230792 -0.504976
-0.208788 -0.214672 -0.066871
-0.171488 0.028087 -0.077661
-0.157677 0.108494 -0.110682
-0.088453 -0.207198 -0.255301
-0.097695 -0.321499 -0.212217
-0.074820 -0.259477 -0.171307
-0.187393 0.230670 -0.368069
-0.180302 0.238732 -0.339621
-0.110861 -0.112042 -0.416853
-0.034671 -0.073251 -0.480355
-0.034220 0.213040 -0.565019
-0.041182 0.139372 -0.519124
-0.359925 -0.051113 -0.324639
-0.039706 -0.506599 0.626079
-0.201642 -0.313737 0.511818
-0.316843 -0.159112 0.490543
-0.272623 -0.135777 0.507940
-0.325163 -0.167516 0.547097
-0.276861 -0.183382 0.593578
-0.310795 -0.008076 0.561226
-0.264766 -0.009128 0.587643
-0.273071 -0.131771 0.504675
-0.281725 -0.081483 0.600514
-0.254039 0.069313 0.093430
-0.270651 0.082007 0.215645
-0.193346 0.127797 0.180345
-0.139038 0.163546 0.225040
-0.054114 0.141357 0.557837
-0.045874 0.160870 0.530778
-0.032151 -0.017043 0.835841
-0.051998 0.090828 0.791315
-0.070710 -0.465777 0.754078
-0.110492 -0.296276 0.880863
0.005108 -0.325760 0.922385
-0.272463 -0.139722 0.841784
-0.220866 -0.081002 0.800883
-0.087789 0.175987 0.502439
-0.249421 0.199406 0.093867
-0.252359 0.187691 -0.020434
-0.169099 0.157197 0.296563
-0.169680 0.118951 0.313998
-0.159502 0.177368 0.243578
-0.204569 0.092683 0.390230
-0.179427 0.077179 0.402121
-0.313544 0.132357 0.579656
-0.305103 0.026116 0.584850
-0.245342 0.032800 0.465286
-0.225914 -0.114794 0.356400
-0.313489 -0.082470 0.118184
-0.302628 -0.156108 0.085431
-0.261679 -0.172859 0.112265
-0.231646 -0.180250 0.156302
-0.252294 -0.281878 0.106935
-0.268832 -0.258370 0.099360
-0.171821 -0.310677 0.079264
-0.133450 -0.368200 0.110102
-0.262527 -0.267215 0.181455
-0.083140 -0.425484 0.550007
-0.155336 -0.377905 0.590408
-0.177056 -0.409049 0.661268
-0.113396 -0.464708 0.351431
-0.018904 0.278642 -0.570977
-0.098846 -0.064496 -0.527077
-0.190542 -0.233263 -0.112971
-0.150806 -0.194020 -0.151808
-0.295127 0.057104 -0.308277
-0.221256 0.191681 -0.372330
-0.053376 0.277267 -0.205046
0.024683 0.255409 -0.210435
-0.207002 -0.220950 -0.077722
0.089924 -0.273806 0.930252
0.066126 -0.153736 0.909076
0.255814 0.140836 0.636828
0.264105 0.110044 0.713521
0.053074 0.138333 0.448350
0.031847 0.174936 0.589273
0.303598 0.160213 0.081519
0.191214 0.151705 0.117041
0.235946 0.056894 0.436789
0.323954 -0.189286 0.693672
0.331203 -0.119453 0.714697
0.327297 -0.130479 0.684825
0.310299 -0.243027 0.701741
0.224097 -0.048181 -0.035072
0.267285 -0.087840 0.178548
0.195576 -0.307975 0.029525
0.193877 -0.260473 0.363863
0.099265 -0.365992 -0.044180
0.421415 -0.146791 -0.398241
-0.008029 0.062058 -0.517469
0.211920 -0.085437 -0.410579
0.365248 -0.183275 -0.361863
0.443463 -0.131348 -0.407824
0.172847 -0.162668 -0.291653
0.074630 -0.185462 -0.383596
0.072263 -0.223967 -0.369388
0.010747 -0.131698 -0.430936
0.061302 -0.203180 -0.404710
0.308911 -0.033271 -0.274792
0.023005 0.291960 -0.345601
-0.012011 0.241356 -0.342789
0.288973 0.104709 -0.249989
0.273893 0.067853 -0.195885
0.174408 0.168121 -0.198189
0.204979 0.151632 -0.210862
0.000320 0.188310 -0.032286
0.152333 -0.225204 -0.090419
-0.010963 0.260809 -0.188896
0.103887 0.213638 -0.232249
0.088611 0.193274 -0.164547
0.240635 0.193102 -0.350549
0.277126 0.159265 -0.441201
0.193160 -0.147374 -0.112001
0.255672 -0.101863 -0.288539
0.026214 -0.110072 -0.450209
0.121107 0.115850 -0.513460
0.261819 -0.025264 -0.370995
0.168410 -0.059927 -0.431584
0.044676 -0.443602 0.568417
0.032958 -0.481069 0.601965
0.230751 -0.360661 0.467654
0.279951 -0.316490 0.516953
0.175919 -0.389134 0.434523
0.334532 -0.155200 0.616457
0.310587 -0.123467 0.605059
0.332134 -0.222231 0.611764
0.319775 -0.216779 0.577891
0.316045 -0.196438 0.556329
0.254315 -0.099634 -0.060613
0.203104 -0.035965 0.414411
0.260169 0.045737 0.561324
0.230594 0.061346 0.150826
0.254920 0.083762 0.169065
0.282634 0.029692 0.152850
0.108190 0.235286 0.066126
0.178171 0.139962 0.443011
0.115018 0.171986 0.608513
0.144249 0.171966 0.630574
0.131014 -0.321980 0.871918
0.138913 -0.365311 0.785717
-0.220650 -0.188030 -0.106170
-0.192524 -0.096206 -0.070732
-0.213783 -0.016791 -0.108553
-0.063068 -0.286555 -0.319211
-0.018677 -0.257113 -0.370151
-0.006397 -0.277791 -0.242685
-0.439167 -0.164633 -0.438720
-0.009106 0.290509 -0.499368
-0.181296 0.030449 -0.513593
-0.093444 -0.329379 0.015708
-0.057999 -0.394122 -0.053151
-0.251312 -0.295108 0.370168
-0.188500 -0.229965 -0.056475
-0.267592 -0.084913 0.200766
-0.217433 -0.009054 -0.039333
-0.217846 -0.063551 0.000803
-0.258005 -0.260531 0.736492
-0.270352 -0.131377 0.701014
-0.190570 0.181486 0.177778
-0.246638 0.176002 -0.033277
-0.222834 0.168385 0.161609
-0.089658 0.225991 0.113779
-0.193486 0.183277 0.440516
-0.126372 0.173050 0.701772
-0.209989 0.234311 0.635334
-0.185312 -0.387824 0.827491
-0.117218 -0.339307 0.889701
-0.130212 0.208600 -0.073570
-0.099126 -0.122214 0.966374
-0.061011 -0.163313 0.973306
-0.090089 -0.204858 0.925951
-0.126202 -0.014656 0.908262
-0.153860 -0.078150 0.870966
-0.209129 -0.078170 0.901381
-0.194906 -0.158035 0.882790
-0.157315 -0.173121 0.899687
-0.295185 0.215533 0.620360
-0.268314 0.204246 0.417871
-0.093968 0.147782 0.426025
-0.134836 0.225698 0.084400
-0.120160 0.222289 -0.008728
-0.150650 0.238719 0.025782
-0.154978 0.194998 0.102650
-0.271232 0.228142 0.030462
-0.314403 0.151770 0.035600
-0.317753 0.201850 0.012010
-0.243614 0.087033 0.438485
-0.243069 0.060696 0.045551
-0.311790 0.087268 0.126051
-0.308631 0.107000 0.071240
-0.268599 0.084980 0.617773
-0.267237 0.033451 0.648718
-0.272583 -0.002038 0.515746
-0.255401 -0.012738 0.445145
-0.216937 -0.044131 0.493706
-0.278622 -0.086468 0.485944
-0.248252 -0.100100 0.439055
-0.256723 -0.121424 0.515118
-0.249656 -0.058045 0.472145
-0.242995 -0.050222 0.534356
-0.263559 -0.091363 0.088923
-0.265023 -0.027102 0.102703
-0.297566 -0.063347 0.204385
-0.305697 -0.092169 0.181964
-0.288430 -0.183311 0.412123
-0.278596 -0.149509 0.438219
-0.287229 -0.225897 0.420718
-0.238502 -0.283096 0.474028
-0.294899 -0.199707 0.447624
-0.255215 -0.167139 0.500342
-0.243216 -0.208616 0.021961
-0.117758 -0.456575 0.554210
-0.144324 -0.433453 0.569689
-0.093888 -0.467622 0.473518
-0.158866 -0.417930 0.534743
-0.148169 -0.397274 0.502505
-0.184545 -0.411508 0.411654
-0.138051 -0.462947 0.413760
-0.026128 -0.410968 0.231654
-0.070867 -0.411004 0.265338
-0.077552 -0.406195 0.182236
-0.072510 -0.404562 0.265806
-0.307569 -0.129256 -0.471928
-0.295584 -0.078803 -0.493178
-0.193916 -0.083729 -0.378114
-0.056001 0.091245 -0.493096
-0.118763 0.119439 -0.492275
-0.144382 0.029298 -0.514590
-0.187378 -0.076504 -0.450741
-0.171530 0.034035 -0.436185
-0.000603 0.139221 -0.644799
-0.076991 0.261498 -0.550566
-0.159474 0.212947 -0.500628
-0.449627 -0.131327 -0.377357
-0.250452 -0.199390 -0.354180
0.026415 -0.192553 -0.474489
-0.028647 -0.157597 -0.398751
0.008800 -0.185842 -0.383903
-0.088927 -0.177316 -0.406520
-0.108731 -0.101564 -0.497343
-0.095180 -0.143022 -0.453149
-0.285946 0.004278 -0.291759
-0.253821 -0.014439 -0.270254
-0.043321 0.293684 -0.337926
-0.101744 0.287883 -0.393074
0.001663 0.244005 -0.374654
-0.226713 0.093663 -0.251301
-0.289607 0.127125 -0.265423
-0.284697 0.128856 -0.259679
-0.201451 0.128214 -0.159860
-0.252589 0.155041 -0.187927
0.023181 0.195660 -0.085429
-0.063416 0.240038 -0.068948
-0.104721 0.184448 -0.089341
0.018870 0.235708 0.015150
-0.024872 0.237562 -0.049178
0.125170 0.228715 -0.076083
-0.015685 -0.134358 0.915052
0.008313 -0.177550 0.923371
-0.011940 -0.221715 0.923886
0.018676 -0.259972 0.927852
0.063285 -0.241368 0.976995
0.221690 -0.089331 0.843588
0.145466 -0.026336 0.904725
0.178368 -0.101017 0.919826
0.126694 -0.172989 0.955936
0.164919 -0.170656 0.901981
0.137724 -0.156629 0.937439
0.271537 0.194522 0.592510
0.232985 0.216292 0.551438
0.269720 0.154854 0.429345
0.289650 0.193111 0.420257
0.119243 0.217745 0.017412
0.077955 0.172608 0.077422
0.111430 0.191601 0.034397
0.105424 0.188840 -0.019794
0.096768 0.218861 -0.004073
0.222601 0.183732 -0.100923
0.176584 0.150698 -0.080570
0.256268 0.131764 -0.006363
0.311262 0.107764 0.071680
0.249680 0.047017 0.496757
0.219235 0.033527 0.474038
0.264455 -0.082639 0.716341
0.303102 -0.067494 0.772500
0.281837 -0.118899 0.644944
0.322703 -0.045152 0.674062
0.262964 0.032876 0.679248
0.264095 0.009897 0.705815
0.323291 -0.050953 0.669491
0.300821 -0.020138 0.675355
0.265492 -0.063290 0.077110
0.307777 -0.039847 0.069048
0.241402 0.024360 -0.008776
0.304681 -0.004545 0.020230
0.219857 -0.234993 0.175048
0.229376 -0.170472 0.222185
0.281189 -0.170561 0.183343
0.233929 -0.144895 0.235179
0.285822 -0.220176 0.069210
0.233216 -0.194376 -0.013975
0.174905 -0.386261 0.420288
0.193918 -0.364492 0.375210
0.100414 -0.403506 0.382501
0.137944 -0.410288 0.310346
0.111680 -0.384063 0.317916
0.020252 -0.431182 0.123507
0.058017 -0.402000 0.168524
0.037865 -0.388088 0.069616
-0.016012 -0.397701 0.092082
0.007213 -0.443351 0.124097
0.329961 -0.091230 -0.441493
0.353883 -0.072818 -0.432926
0.199893 -0.066737 -0.372256
0.300024 -0.025394 -0.346719
0.276439 -0.090037 -0.410746
0.101902 0.036802 -0.474422
0.040097 -0.024362 -0.520978
0.016095 0.044771 -0.543264
0.228794 0.114263 -0.479210
0.104964 0.139805 -0.502870
0.099375 0.207621 -0.588303
0.252118 -0.098103 -0.462265
0.308103 -0.118987 -0.505846
0.188535 -0.207690 -0.402556
0.204361 -0.152306 -0.376071
0.230520 -0.198878 -0.377054
0.164215 -0.208069 -0.323733
0.136108 -0.129044 -0.442373
0.080642 -0.117226 -0.416427
0.109182 -0.119993 -0.460883
0.102449 -0.191093 -0.411951
0.122451 -0.226030 -0.218402
0.105390 0.236366 -0.418912
0.005068 0.244420 -0.450632
0.036630 0.275662 -0.366962
0.207751 -0.035983 -0.181468
0.220680 0.047019 -0.246279
0.285992 0.082948 -0.250604
0.256797 0.043931 -0.211339
0.245654 0.012673 -0.174409
0.032466 0.253445 -0.098721
0.033478 0.252705 -0.110236
0.049104 0.237063 -0.144817
0.132637 -0.300999 -0.100497
0.201102 -0.214761 -0.106160
0.133399 -0.231513 -0.082801
0.178941 -0.081397 -0.105779
0.214600 -0.144369 -0.116690
0.173121 -0.114190 -0.161185
0.226704 -0.037287 -0.109565
0.032484 -0.331577 -0.197442
-0.003895 -0.266421 -0.233742
0.033042 -0.284371 -0.283672
0.092960 -0.269879 -0.309961
0.015440 -0.257071 -0.321680
0.018629 -0.240501 -0.306203
0.041425 -0.288840 -0.239605
0.229362 0.163922 -0.329337
0.247583 0.196375 -0.388611
0.316184 -0.048026 -0.284808
0.324604 -0.023422 -0.275260
0.425457 -0.085251 -0.307437
0.035652 0.264254 -0.564375
0.181193 0.184868 -0.537336
0.147986 -0.010874 -0.439310
0.156922 -0.020924 -0.512709
0.223784 0.024519 -0.428672
0.080994 0.129079 -0.530456
0.378633 -0.134512 -0.453770
0.228592 -0.122072 -0.439709
0.306692 -0.073772 -0.448827
0.057079 -0.399678 0.272049
0.048476 -0.457331 0.299751
0.042478 -0.463132 0.260484
-0.019890 -0.430734 0.245384
0.060776 -0.432733 0.199737
0.074491 -0.445180 0.184986
0.215912 -0.370994 0.505177
0.185553 -0.387821 0.531531
0.144081 -0.470171 0.549013
0.164755 -0.457311 0.474084
0.076129 -0.475227 0.446887
0.103101 -0.459603 0.485994
0.217870 -0.207822 0.439757
0.258507 -0.233782 0.382018
0.260566 -0.277451 0.466478
0.245003 -0.175392 0.421919
0.227289 -0.161680 0.442830
0.256729 -0.148212 0.507178
0.291460 -0.207077 0.526687
0.313696 -0.100495 0.118605
0.293645 0.006003 0.106670
0.290314 -0.102215 0.435019
0.280627 -0.126782 0.398650
0.282971 -0.064875 0.438426
0.280179 -0.041927 0.507360
0.283591 -0.001426 0.505792
0.245037 0.001074 0.548309
0.261754 -0.124823 0.482622
0.248756 -0.083404 0.535532
0.307607 0.071774 0.607324
0.249230 0.110621 0.632388
0.259471 0.075677 0.081540
0.256863 0.061563 0.034746
0.282011 0.137387 0.436551
0.259753 0.123151 0.415733
0.306725 0.106851 0.480102
0.167950 0.188350 -0.043912
-0.018489 0.216069 0.389814
0.017977 0.153666 0.372321
0.016231 0.200456 0.443384
0.035008 0.164596 0.410155
0.078641 0.131637 0.435379
0.070061 0.179191 0.452168
0.171694 0.156276 0.620527
0.042427 0.033368 0.749584
0.000850 0.061186 0.828797
0.026525 0.037289 0.840039
0.086086 0.023797 0.862331
0.105698 -0.000772 0.904424
0.103493 0.036877 0.855606
0.085574 0.015411 0.849692
0.113025 0.101904 0.780444
0.125509 0.027464 0.818221
-0.019399 -0.419484 0.763381
0.013004 -0.433925 0.862081
0.072021 -0.322984 0.947590
-0.066341 0.187497 -0.172427
-0.112307 0.175164 -0.112704
-0.230053 0.077889 -0.124421
-0.174328 0.089932 -0.126634
-0.253335 0.018124 -0.240374
-0.263303 0.015856 -0.203479
-0.266494 0.094299 -0.175708
-0.283357 0.092182 -0.217299
-0.227963 0.012475 -0.207426
-0.088932 0.286080 -0.434388
-0.068290 0.235120 -0.459058
-0.050793 0.296329 -0.371413
-0.135997 -0.165443 -0.203136
-0.189517 -0.151028 -0.230499
-0.086959 -0.160332 -0.415782
-0.117069 -0.131595 -0.399707
-0.230360 -0.138803 -0.317006
-0.213157 -0.119039 -0.329662
-0.369249 -0.178429 -0.416979
-0.347341 -0.130675 -0.414867
-0.171145 0.202104 -0.465270
-0.208680 0.208826 -0.504383
-0.018363 -0.039795 -0.522843
-0.026518 -0.076573 -0.486001
-0.093298 -0.048653 -0.542161
-0.054759 0.091801 -0.532685
-0.250297 -0.121282 -0.440530
-0.247205 -0.072447 -0.371651
-0.412230 -0.136044 -0.425425
-0.104655 -0.384869 0.135339
-0.111760 -0.405740 0.185405
-0.129920 -0.421122 0.116218
-0.146583 -0.416577 0.203711
-0.106049 -0.362337 0.089936
-0.136514 -0.349883 0.013678
-0.158611 -0.382716 0.058790
-0.090736 -0.354296 0.110143
-0.203150 -0.361557 0.206499
-0.174136 -0.387341 0.175210
-0.169927 -0.293554 0.253952
-0.207604 -0.317944 0.272492
-0.142355 -0.364317 0.239312
-0.199291 -0.271415 0.304509
-0.235428 -0.267326 0.211583
-0.252652 -0.234646 0.234163
-0.241217 -0.233140 0.379616
-0.259593 -0.267478 0.394155
-0.253005 -0.160854 0.445151
-0.223676 -0.171551 0.388947
-0.295178 -0.065060 -0.006481
-0.258077 0.012503 0.020962
-0.258439 -0.093093 0.084122
-0.315186 -0.014825 0.116635
-0.261174 0.050201 0.042411
-0.299167 0.073981 0.006284
-0.288237 -0.130033 0.671581
-0.334547 -0.099815 0.667935
-0.329618 -0.101121 0.693217
-0.272169 -0.037049 0.672342
-0.322921 -0.028561 0.682987
-0.268917 0.040578 0.719257
-0.262354 0.011808 0.714631
-0.303138 0.026648 0.636202
-0.276481 0.157303 0.595906
-0.258025 0.190759 0.613948
-0.212155 0.123097 -0.051269
-0.277329 0.106825 -0.009637
-0.218271 0.065623 -0.062432
0.007246 0.222598 0.158589
-0.026932 0.205310 0.164559
0.016240 0.175487 0.180066
0.020728 0.177838 0.101318
-0.013646 0.172601 0.113209
-0.094630 0.215847 0.113717
-0.104910 0.164933 0.124127
-0.068481 0.151407 0.221727
-0.192296 0.223664 0.363096
-0.135498 0.147842 0.673574
-0.081051 0.191565 0.628272
-0.247019 -0.099551 0.830107
-0.251633 -0.030750 0.847101
-0.213345 -0.040245 0.766106
-0.226624 -0.011676 0.745458
-0.262577 0.026242 0.721145
-0.298161 -0.037703 0.738417
-0.238168 -0.040922 0.732646
0.002781 0.008184 0.868462
-0.057528 -0.081119 0.922627
-0.115603 -0.060286 0.863803
-0.078976 -0.008339 0.911038
-0.094023 -0.037306 0.932001
-0.145659 -0.216717 0.899526
-0.143678 -0.169815 0.965661
-0.068937 -0.220534 0.922591
0.010005 -0.270800 0.926874
-0.000517 -0.235461 0.942999
-0.142710 0.184458 -0.523012
0.004917 -0.390393 0.933311
-0.075280 -0.085700 0.903186
-0.073837 -0.118106 0.947485
-0.052788 -0.160567 0.912225
-0.250976 0.213187 0.667884
-0.196198 0.142037 0.691483
-0.005735 0.052038 0.719150
0.016737 0.073824 0.743693
-0.083039 0.107043 0.721211
-0.006729 0.139929 0.637772
-0.044158 0.141553 0.659513
-0.103226 0.172272 0.605211
-0.031820 0.128092 0.634345
-0.037175 0.134064 0.637541
-0.121283 0.110392 0.687118
-0.064560 0.142390 0.718732
-0.254655 0.191830 0.365322
-0.010413 0.208303 0.362559
0.000997 0.206583 0.374018
-0.058100 0.187667 0.356938
-0.067275 0.187253 0.461479
-0.197240 0.230454 -0.089690
-0.142211 0.112660 -0.042118
-0.262582 0.185756 0.078430
-0.244555 0.141822 -0.018289
-0.256340 0.122125 0.069865
-0.310062 0.138452 0.098225
-0.212056 0.047446 0.450076
-0.226687 0.060187 0.476374
-0.050521 -0.457215 0.738310
-0.076878 -0.444984 0.786017
-0.096021 -0.392244 0.754752
-0.130215 -0.415018 0.764414
-0.129906 -0.372254 0.730388
-0.230072 -0.350240 0.649520
-0.168622 -0.376831 0.650399
-0.221048 -0.347055 0.687711
-0.171598 -0.391676 0.683003
-0.167374 -0.436561 0.745708
-0.181461 0.039599 -0.016428
-0.272067 -0.186974 0.201739
-0.282183 -0.159869 0.204103
-0.242995 -0.206160 0.234187
-0.229435 -0.143945 0.236708
-0.233997 -0.099690 0.186628
-0.266949 -0.176722 0.037961
-0.072532 -0.415410 0.429262
-0.150703 -0.443163 0.433939
-0.092170 -0.399421 0.390524
-0.175035 -0.385560 0.427153
-0.130019 -0.363244 0.295876
-0.153502 -0.433419 0.357238
-0.083276 -0.395068 0.299933
-0.004032 -0.445083 0.214966
0.010189 -0.401986 0.179883
-0.066397 -0.397201 0.127166
-0.068627 -0.439409 0.066225
0.002786 -0.436111 0.033785
-0.361867 -0.078964 -0.453751
-0.237974 -0.008626 -0.375465
-0.265346 -0.055658 -0.372536
-0.230360 -0.044166 -0.382040
-0.132321 -0.005357 -0.530515
0.013823 0.044756 -0.544621
-0.073125 -0.008278 -0.493582
-0.256359 0.152693 -0.485784
-0.186078 0.131739 -0.448807
-0.065441 0.213632 -0.647911
-0.080099 0.213309 -0.545168
-0.346757 -0.101684 -0.473766
-0.275722 -0.119408 -0.457331
-0.215165 -0.148686 -0.406295
-0.233002 -0.143447 -0.403112
-0.156342 -0.149529 -0.427318
-0.146971 -0.203140 -0.326955
-0.167620 -0.173220 -0.327514
-0.122222 -0.187112 -0.188888
-0.107268 -0.189725 -0.259078
-0.259073 -0.058015 -0.252886
-0.191254 -0.079108 -0.222851
-0.206716 -0.062002 -0.241880
-0.146917 0.262798 -0.470530
-0.219955 0.207850 -0.436636
-0.122945 0.279547 -0.397853
-0.225765 0.165261 -0.360822
-0.274869 0.185423 -0.265381
-0.213427 0.186919 -0.233513
-0.204601 0.223067 -0.260823
-0.256719 0.034192 -0.162675
-0.191902 -0.020256 -0.187023
-0.030532 -0.298519 -0.175489
-0.002830 -0.307693 -0.180177
-0.032087 -0.372147 -0.135802
-0.079164 -0.330571 -0.109051
-0.031339 -0.339565 -0.195665
-0.194951 0.022468 -0.037256
-0.183458 -0.000769 -0.064224
0.095589 -0.331858 0.888188
0.074528 -0.308656 0.929264
-0.004950 -0.010378 0.877734
0.013627 -0.035339 0.917545
0.027962 -0.012870 0.908973
0.044773 -0.082536 0.952065
0.254792 -0.005711 0.752353
0.207076 -0.044851 0.783623
0.251284 -0.101255 0.787302
0.260066 -0.128632 0.784253
0.235582 -0.079027 0.760425
0.275830 -0.049538 0.775970
0.287502 -0.039216 0.778412
0.237412 0.032055 0.707088
0.050602 0.140574 0.607125
0.066443 0.098318 0.643132
-0.005733 0.126242 0.729332
0.120876 0.070062 0.702682
0.122105 0.088839 0.723797
0.027806 0.130461 0.690143
0.104839 0.159393 0.677862
0.259807 0.196495 0.350992
0.275970 0.192398 0.065873
0.271292 0.235067 -0.013232
0.090829 0.126774 0.332176
0.164784 0.154472 0.386581
0.212236 0.148061 0.226954
0.170090 0.075791 0.268957
0.155347 0.068644 0.320090
0.212347 0.065292 0.321894
0.237982 0.072763 0.289351
0.189582 0.022894 0.311556
0.046729 -0.450526 0.753057
0.090056 -0.470250 0.772446
0.007594 -0.439143 0.762236
-0.014230 -0.446976 0.663194
0.017586 -0.493955 0.705582
0.279762 -0.043657 0.226432
0.276322 -0.065783 0.216064
0.203383 -0.014922 0.323670
0.267099 -0.059000 0.359677
0.250997 0.033433 0.331184
0.217634 -0.040371 0.314728
0.228499 -0.073133 0.354907
0.222472 -0.081980 0.346784
0.298287 -0.142834 0.056937
0.241230 -0.139927 0.025581
0.293866 -0.073184 0.000282
0.236267 -0.096376 -0.020168
0.298277 -0.117885 0.070296
0.260000 -0.076009 0.105578
0.200553 -0.291494 -0.064481
0.166345 -0.250233 0.001168
0.237470 -0.245070 -0.002029
0.169600 -0.358490 0.368433
0.195874 -0.299581 0.331373
0.160032 -0.405756 0.252309
0.146616 -0.385033 0.280319
0.073328 -0.433051 0.199531
0.106171 -0.383083 0.275444
0.156238 -0.412998 0.181188
0.071482 -0.425565 0.050570
0.054121 -0.365012 -0.023574
0.000145 -0.411133 -0.058589
0.276923 -0.040643 -0.341398
0.353518 -0.109896 -0.364650
0.076918 0.139629 -0.588865
0.056850 0.098546 -0.585333
0.087701 0.129630 -0.570270
0.268026 0.038728 -0.358848
0.223481 0.034142 -0.415466
0.101665 0.157553 -0.542394
0.040715 0.276955 -0.556280
0.134061 -0.115441 -0.514156
0.159264 -0.070544 -0.471948
0.244840 -0.072654 -0.296196
0.211865 -0.122032 -0.223219
0.244008 0.040642 -0.317458
0.289707 0.057174 -0.301853
0.249522 0.120056 -0.331052
0.203625 0.220744 -0.480209
0.176164 0.203099 -0.232257
0.110930 0.226139 -0.242892
0.196222 0.246406 -0.233808
0.117940 0.250242 -0.209211
0.204342 0.091201 -0.179926
0.211234 0.122837 -0.150225
0.062004 -0.354139 -0.112905
0.086728 -0.303998 -0.173577
0.108086 -0.300059 -0.121821
0.160543 -0.277444 -0.053450
0.145291 -0.289369 -0.128203
0.229507 -0.041542 -0.031122
0.180124 0.040879 -0.053148
0.173717 0.051474 -0.095303
0.210827 -0.034681 -0.146056
0.177540 0.002924 -0.094421
0.057676 -0.313539 -0.215743
0.060663 -0.236997 -0.232335
0.105315 -0.237986 -0.281245
0.144056 -0.243094 -0.298464
0.099659 -0.213034 -0.241433
0.115812 -0.262758 -0.182834
0.179161 0.201934 -0.300538
0.113687 0.230933 -0.307742
0.199383 0.220270 -0.342129
0.160024 0.279448 -0.277648
0.122747 -0.177776 -0.320845
0.081352 -0.160770 -0.405328
0.171097 -0.206137 -0.290240
0.115309 -0.162325 -0.328116
0.104049 -0.168974 -0.357626
0.089034 -0.136414 -0.407726
0.395920 -0.100310 -0.358728
-0.000544 -0.064110 -0.531249
0.081856 -0.076468 -0.532768
0.063094 -0.094580 -0.483512
0.095916 0.253646 -0.493717
-0.001618 0.276623 -0.553999
0.046096 0.155795 -0.596074
0.224277 0.047592 -0.408341
0.050946 0.137152 -0.543839
0.002950 0.113167 -0.620515
0.162862 0.070210 -0.444682
0.377755 -0.056496 -0.380558
0.077901 -0.475626 0.398000
0.086470 -0.461140 0.427730
0.063323 -0.444073 0.444532
-0.018701 -0.423545 0.365878
-0.022572 -0.417966 0.285617
0.011735 -0.416710 0.330712
0.053518 -0.455851 0.284742
0.160182 -0.384546 0.630123
0.141887 -0.439451 0.625269
0.162534 -0.418040 0.589759
0.169883 -0.401530 0.659814
0.176108 -0.439011 0.637775
0.118011 -0.435226 0.549781
0.158931 -0.463059 0.579782
0.168408 -0.456677 0.572606
0.195262 -0.414226 0.517217
0.143342 -0.354850 0.171655
0.191283 -0.369489 0.207042
0.165253 -0.335964 0.182815
0.146313 -0.302854 0.087306
0.184985 -0.312424 0.047329
0.245809 -0.286535 0.070781
0.207116 -0.272639 0.016829
0.191115 -0.236162 0.071299
0.197760 -0.316521 0.085935
0.216974 -0.277680 0.134817
0.240245 -0.244073 0.128813
0.253073 -0.274604 0.204258
0.210455 -0.269461 0.083986
0.225994 -0.190986 0.105649
0.282781 -0.167396 0.134899
0.260329 -0.131648 0.141682
0.306757 -0.129797 0.079059
0.210387 0.068561 -0.041647
0.189692 -0.395075 0.810597
0.164086 -0.406711 0.716618
0.162545 -0.366410 0.757137
0.137823 -0.375590 0.777123
0.143905 -0.411103 0.654076
0.124438 -0.389073 0.719263
0.160671 -0.399880 0.749235
0.168311 -0.406194 0.659387
0.179775 -0.418223 0.742000
0.193195 0.047280 0.379334
0.186064 0.067894 0.382142
0.226532 0.030349 0.422566
0.218491 0.046671 0.390039
0.143958 0.119322 0.458006
0.215574 0.103402 0.418154
0.085312 0.141020 0.259277
0.146430 0.178103 0.313294
0.140418 0.090063 0.273969
0.181065 0.084221 0.266224
0.093164 0.196329 -0.054623
0.069731 0.213215 -0.064913
-0.013860 0.172401 0.182565
0.041926 0.183849 0.229373
0.070514 0.166208 0.243650
0.024319 0.168570 0.273891
0.038229 0.202095 0.374225
0.117955 0.143310 0.273243
0.071410 0.187766 0.349152
0.060071 0.207992 0.332019
0.067119 0.148088 0.233645
0.282794 0.070085 0.711394
0.223535 0.091752 0.699612
0.181346 0.040486 0.732698
0.182381 0.059564 0.809955
0.181992 0.044162 0.788632
0.162186 0.022060 0.871569
0.173556 0.044799 0.848106
0.206472 0.025913 0.805221
0.215930 -0.059572 0.881414
0.062621 -0.409301 0.897092
0.253207 -0.238087 0.737186
0.241120 -0.260999 0.670410
0.255979 -0.267636 0.732650
0.233253 -0.304920 0.759722
0.177504 -0.349317 0.805017
0.219914 -0.317665 0.753428
0.250649 -0.288400 0.792847
0.205825 -0.373169 0.746187
0.260729 -0.292606 0.749780
-0.110960 -0.274971 -0.185523
-0.101090 -0.347134 -0.103206
-0.131135 -0.284081 -0.101578
-0.088807 -0.344509 -0.077521
-0.159568 -0.284481 -0.045979
-0.110571 -0.243513 -0.101105
-0.152669 -0.303135 -0.124978
-0.165941 0.115202 -0.137634
-0.198106 0.158229 -0.171115
-0.171485 0.197251 -0.219776
-0.223940 0.246086 -0.312387
-0.163501 0.219165 -0.209281
-0.165849 0.216234 -0.251622
-0.156544 0.270111 -0.273052
-0.168992 0.234023 -0.503056
-0.210858 0.194883 -0.428681
-0.195328 0.200342 -0.400676
-0.243997 0.046178 -0.274695
-0.251287 0.078433 -0.381858
-0.269212 -0.130098 -0.281524
-0.286646 -0.102687 -0.329742
-0.258201 -0.089868 -0.315254
-0.329994 -0.176259 -0.333291
-0.363831 -0.146641 -0.335474
-0.323844 -0.185387 -0.410252
-0.072726 -0.078379 -0.495525
-0.100529 -0.075980 -0.476441
-0.054916 0.274144 -0.523528
-0.221058 0.002906 -0.423013
-0.288000 -0.003535 -0.344620
-0.062844 0.126759 -0.589540
-0.119167 0.199764 -0.606567
-0.039058 0.187062 -0.574688
-0.191495 0.039773 -0.425625
-0.304055 -0.105766 -0.348726
-0.002188 -0.431100 0.050762
-0.040223 -0.360628 -0.031758
-0.071309 -0.359629 -0.050320
-0.060167 -0.347164 -0.086723
-0.079916 -0.394785 0.256552
-0.131860 -0.377763 0.263287
-0.133252 -0.385013 0.198466
-0.113113 -0.379447 0.189593
-0.199674 -0.392026 0.337909
-0.157467 -0.336800 0.375017
-0.172557 -0.318129 0.406624
-0.184889 -0.299121 -0.002286
-0.150001 -0.323201 -0.034972
-0.223559 -0.172564 0.030947
-0.257059 -0.159519 0.009430
-0.303347 -0.076220 0.072235
-0.299744 -0.162435 0.026654
-0.290190 -0.121203 0.023403
-0.264366 -0.016198 0.264381
-0.265598 -0.101176 0.279408
-0.250283 -0.091847 0.291711
-0.222768 -0.090622 0.336712
-0.215854 -0.048052 0.285975
-0.267411 -0.012336 0.367888
-0.040302 -0.470156 0.774732
-0.003342 -0.487835 0.705728
-0.078081 -0.475103 0.745405
-0.091022 -0.454085 0.670666
-0.103402 -0.422378 0.701090
-0.023824 -0.456082 0.679321
-0.156143 0.068270 0.313607
-0.161504 0.077347 0.276853
-0.161776 0.140408 0.260466
-0.252361 0.070723 0.233769
-0.236825 0.061385 0.253189
-0.239713 0.023554 0.338521
-0.130845 0.127308 0.429780
-0.113049 0.114865 0.411420
-0.174410 0.097318 0.392493
-0.133981 0.140351 0.374482
-0.182473 0.177324 -0.076362
-0.036561 0.215302 0.304755
-0.063972 0.209099 0.277671
0.005109 0.216415 0.282251
-0.022515 0.218080 0.236059
-0.059485 0.159388 0.190868
-0.048565 0.152479 0.220229
-0.084221 0.205692 0.248536
-0.057912 0.144016 0.297399
-0.285920 0.031657 0.742484
-0.229726 0.039361 0.688481
-0.116162 0.060150 0.743876
-0.190693 0.052086 0.789818
-0.123352 0.025281 0.791595
-0.239347 0.020478 0.789728
-0.199032 0.025068 0.809611
-0.185117 -0.069783 0.873414
-0.133323 -0.048493 0.873989
-0.147447 0.029216 0.861857
0.021633 -0.366885 0.849162
-0.283889 -0.226013 0.794675
-0.225936 -0.280188 0.767926
-0.242265 -0.236675 0.761604
-0.237479 -0.289108 0.740452
-0.207334 -0.324499 0.691037
-0.224126 -0.352744 0.684429
-0.235972 -0.317773 0.681707
-0.239311 -0.308299 0.733117
-0.189373 -0.379186 0.714975
-0.240851 -0.299322 0.753054
-0.029773 -0.354816 0.961901
-0.118183 0.166325 0.641980
-0.154847 0.206070 0.564536
-0.153980 0.202055 0.527656
-0.141709 0.244037 0.578936
-0.094910 -0.297230 0.892519
-0.058593 -0.277219 0.974350
-0.078807 -0.246099 0.963376
-0.198848 -0.303236 0.843064
-0.181121 -0.277302 0.880427
-0.137678 -0.272103 0.926149
-0.272649 -0.247769 0.784131
-0.194424 -0.237268 0.845752
-0.246944 -0.236327 0.852218
-0.183178 -0.231198 0.839605
-0.224778 -0.297138 0.813407
-0.225435 -0.258468 0.814928
-0.157626 0.130448 0.731393
-0.238615 0.119790 0.678912
-0.218404 0.057718 0.783968
-0.227708 0.076251 0.720537
-0.139920 0.118497 0.715051
-0.136569 0.164347 0.557365
-0.065421 0.179696 0.469218
-0.116623 0.227215 0.440139
0.010453 0.188216 0.039871
-0.041012 0.236326 0.010964
-0.105291 0.223209 -0.037636
-0.034970 0.229453 0.019366
-0.103623 0.173062 0.036936
-0.185013 0.094857 -0.064652
-0.323719 0.187651 0.470267
-0.319270 0.115159 0.455018
-0.273512 0.119369 0.504060
-0.304263 0.142962 0.539331
-0.252183 0.080313 0.647927
-0.287207 -0.043065 0.165031
-0.239597 0.033993 0.200694
-0.293812 0.034951 0.111640
-0.271032 -0.222672 0.262918
-0.271738 -0.164105 0.248218
-0.259977 -0.272863 0.335638
-0.266470 -0.194430 0.261784
-0.228807 -0.113077 0.375227
-0.278367 -0.138786 0.288642
-0.241141 -0.162266 0.338927
-0.280600 -0.080491 0.252393
-0.283133 -0.238126 0.069895
-0.277357 -0.283784 0.555103
-0.292881 -0.278288 0.543721
-0.263049 -0.372193 0.518481
-0.274970 -0.344358 0.540872
-0.190684 -0.387220 0.631872
-0.216960 -0.318722 0.661776
-0.278551 -0.306875 0.628827
-0.262208 -0.269877 0.642527
-0.061226 -0.452159 0.525240
-0.020629 -0.462248 0.496014
-0.080866 -0.432583 0.471293
-0.077387 -0.441845 0.501301
-0.266757 -0.062808 -0.437389
-0.085776 0.013200 -0.499954
-0.129239 0.070275 -0.473938
-0.229785 0.151588 -0.424043
-0.000181 0.194322 -0.567589
-0.042799 0.280660 -0.483209
-0.131644 0.271737 -0.459453
-0.239922 -0.087323 -0.470560
-0.210234 -0.070560 -0.500361
-0.111421 -0.190853 -0.383519
-0.167481 -0.176647 -0.464464
-0.341451 -0.119823 -0.356556
-0.322010 -0.088939 -0.316457
-0.324004 -0.061922 -0.353450
-0.123206 -0.213866 -0.281049
-0.238365 -0.112715 -0.256895
-0.218054 -0.120659 -0.231593
-0.149219 0.225789 -0.425199
-0.101182 0.285498 -0.310671
-0.093856 0.267260 -0.327661
-0.135092 0.229727 -0.307677
-0.033382 0.256532 -0.272605
-0.070165 0.285263 -0.264681
-0.196306 -0.044087 -0.202529
-0.191335 -0.081400 -0.166249
-0.220824 -0.065698 -0.129039
-0.202758 -0.129885 -0.175516
-0.142788 0.085392 -0.051161
-0.181669 0.156070 -0.069085
-0.156061 0.142190 -0.075958
-0.087624 0.238820 -0.149674
-0.147434 0.162687 -0.133605
-0.152058 0.137501 -0.172583
-0.198804 0.110386 -0.155556
0.140579 0.177422 0.590825
0.171446 0.167612 0.628010
0.135484 0.236519 0.595982
0.101614 -0.329008 0.879700
0.149696 -0.246551 0.888576
0.134001 -0.245200 0.960863
0.139832 -0.233646 0.930916
0.151733 -0.205622 0.871323
0.198407 -0.185548 0.853053
0.154898 -0.291271 0.879424
0.213859 -0.283299 0.848654
0.247212 -0.268207 0.828743
0.237093 -0.238336 0.801116
0.199621 0.123728 0.694774
0.156341 0.102408 0.697205
0.117474 0.083146 0.753909
0.147957 0.116106 0.701282
0.154556 0.218104 0.562132
0.147812 0.185263 0.486880
0.110282 0.231623 0.408289
0.006782 0.216589 -0.002584
0.030548 0.215446 0.100033
0.044432 0.171859 0.050179
0.038825 0.222682 0.035945
0.135427 0.100794 -0.046016
0.156597 0.118146 -0.017963
0.322056 0.131599 0.577685
0.328126 -0.087340 0.576886
0.267556 -0.050848 0.521430
0.268218 0.006125 0.598068
0.319426 -0.052226 0.585590
0.265745 -0.036070 0.562788
0.267487 -0.178488 0.009994
0.203338 -0.152227 -0.054490
0.228607 -0.174993 0.362516
0.267019 -0.200364 0.333357
0.278258 -0.151988 0.395773
0.194602 -0.345150 0.289781
0.158740 -0.359711 0.263323
0.186201 -0.380445 0.285280
0.248310 -0.286548 0.203423
0.191085 -0.251913 0.284229
0.230327 -0.318054 0.205381
0.232637 -0.298339 0.282489
0.256408 -0.281880 0.314204
0.201852 -0.285968 0.319401
0.108387 -0.355060 0.198889
0.155223 -0.353630 0.118323
0.111666 -0.425965 0.160879
0.058673 -0.368200 0.039074
0.134585 -0.376926 0.129135
0.102955 -0.395724 0.028233
0.447591 -0.102882 -0.482697
0.367520 -0.139927 -0.443067
0.293379 -0.125476 -0.467468
0.274963 -0.122760 -0.428227
0.236609 -0.069108 -0.442194
0.300697 -0.067417 -0.374958
0.247138 -0.087654 -0.464815
0.028603 -0.022983 -0.540326
0.075042 0.000075 -0.541758
0.113882 -0.047258 -0.543771
0.220912 0.191958 -0.470056
0.253238 0.166016 -0.443965
0.070995 0.227963 -0.638933
0.349165 -0.122236 -0.492717
0.297994 -0.184769 -0.348482
0.292882 -0.168347 -0.338699
0.169344 -0.219983 -0.184550
0.193023 -0.121252 -0.256274
0.216137 -0.062505 -0.215037
0.234539 -0.063316 -0.296855
0.219625 0.004180 -0.212291
0.229236 0.230252 -0.410097
0.163290 0.231874 -0.384333
0.240988 0.125106 -0.314398
0.232191 0.152806 -0.349364
0.210149 0.154495 -0.288774
0.235918 0.020970 -0.134556
0.241586 0.045279 -0.192123
0.237324 0.067414 -0.215984
0.027358 -0.333055 -0.120761
0.035098 -0.394895 -0.098293
-0.000367 -0.368210 -0.138947
0.026877 -0.284746 -0.160214
0.039163 -0.305538 -0.117062
0.082937 -0.371881 -0.076350
0.125124 0.164587 -0.119718
0.124620 0.160026 -0.140414
0.153951 0.157405 -0.105544
0.189308 0.154233 -0.105194
0.181163 0.178672 -0.098350
0.167830 0.201106 -0.167327
0.233401 -0.119292 -0.172816
0.181809 -0.071710 -0.176005
0.234745 -0.088697 -0.201472
0.174397 -0.068869 -0.190309
0.054253 0.232662 -0.294880
0.098735 0.285016 -0.279349
0.006013 0.289000 -0.314749
0.080365 0.285495 -0.399114
0.185223 -0.094246 -0.275304
0.174381 -0.173770 -0.272023
0.144353 -0.162795 -0.291679
0.211769 -0.135769 -0.297020
0.355323 -0.115879 -0.378584
0.135844 -0.126790 -0.432046
0.169439 -0.142036 -0.491833
0.247744 -0.126104 -0.441096
0.166568 -0.170666 -0.425947
0.201404 -0.148729 -0.404208
0.113054 0.221487 -0.498745
0.101584 0.234406 -0.511894
0.239660 0.108099 -0.440765
0.265293 0.167990 -0.483952
0.097407 -0.046227 -0.537133
0.133001 0.022122 -0.540058
0.057748 0.057235 -0.489205
0.074618 0.032489 -0.469985
0.267768 -0.113099 -0.417473
0.348467 -0.121148 -0.414945
0.112336 -0.437166 0.563598
0.077219 -0.449701 0.526332
0.047154 -0.439617 0.474907
0.062450 -0.493147 0.435463
0.198436 -0.344422 0.514123
0.223533 -0.401752 0.543110
0.204952 -0.380232 0.560299
0.228220 -0.331850 0.595660
0.224919 -0.299090 0.565888
0.247901 -0.271661 0.510331
0.301931 -0.309680 0.623526
0.239017 -0.282416 0.603269
0.213909 -0.314668 0.666541
0.267345 -0.341986 0.574712
0.226238 -0.233640 0.072611
0.263834 -0.208689 0.073556
0.217960 -0.188630 0.345230
0.225351 -0.160287 0.277523
0.263951 -0.200996 0.302666
0.212906 -0.200844 0.265845
0.231614 -0.097813 0.222221
0.229134 -0.130243 0.249771
0.248040 -0.134812 0.250105
0.264788 -0.144523 0.258265
0.228654 -0.127017 0.319834
0.296729 0.048613 0.126746
0.255945 -0.026699 0.162376
0.301244 0.038744 0.643126
0.305050 0.005560 0.698400
0.292184 0.007817 0.680266
0.259395 0.141320 0.471590
0.287081 0.217024 0.501968
0.325768 0.126521 0.485262
0.241077 0.096329 0.021726
0.320887 0.208498 -0.026877
0.267698 0.169332 0.056704
0.067710 0.224295 0.102052
0.052436 0.174107 0.125195
0.120966 0.202877 0.186873
0.044516 0.214239 0.199863
0.047797 0.210114 0.115023
0.147934 0.197039 0.414206
0.332711 0.205413 0.465141
0.296389 0.125464 0.600430
0.244538 0.210215 0.642396
0.196377 -0.091107 0.851063
0.235140 -0.070555 0.848178
0.243763 -0.092058 0.851183
0.185193 -0.102598 0.852277
0.206356 -0.177116 0.896700
0.264186 -0.240035 0.840849
0.230582 -0.206129 0.817852
0.278695 -0.156293 0.790641
0.229157 -0.132845 0.799907
0.042780 -0.379724 0.890554
0.227674 0.190986 -0.457177
0.184658 0.197746 -0.465898
-0.130463 -0.277610 -0.071143
-0.147734 -0.236585 -0.060371
-0.139015 -0.296783 -0.026371
-0.126234 -0.301481 -0.105064
-0.225501 -0.036157 -0.056765
-0.213626 0.082626 -0.099143
-0.189660 0.041038 -0.149880
-0.151686 0.132445 -0.094119
-0.176206 -0.021612 -0.103244
-0.097057 -0.257527 -0.348521
-0.116582 -0.246844 -0.271260
-0.102720 -0.276258 -0.201600
-0.132535 -0.232594 -0.152805
-0.077076 -0.234289 -0.241908
-0.096674 -0.259481 -0.206211
-0.154494 0.219788 -0.349440
-0.232698 0.228555 -0.347955
-0.143399 0.228199 -0.286464
-0.296386 0.108808 -0.412184
-0.245287 0.153649 -0.297343
-0.247760 0.114156 -0.330171
-0.085929 -0.216356 -0.339989
-0.111123 -0.216917 -0.324762
-0.147080 -0.231280 -0.326402
-0.084793 -0.178686 -0.306519
-0.335197 -0.179601 -0.427956
-0.291139 -0.173497 -0.484494
-0.319594 -0.190609 -0.414954
-0.282849 -0.187714 -0.479711
-0.246818 -0.152167 -0.418445
-0.296779 -0.139006 -0.437132
-0.074014 -0.137378 -0.469943
-0.048351 0.243184 -0.444466
0.019265 0.169565 -0.637301
-0.112058 0.176458 -0.490849
-0.145364 0.089848 -0.474974
-0.182222 0.100530 -0.469680
-0.230636 0.016285 -0.459271
-0.254482 0.020688 -0.384553
-0.117944 0.159472 -0.564314
-0.387317 -0.034397 -0.336290
-0.376859 -0.077121 -0.381596
-0.045557 -0.482670 0.633537
-0.026929 -0.499948 0.536042
-0.058186 -0.488174 0.563485
-0.083155 -0.497672 0.633052
-0.046721 -0.505688 0.547134
-0.230958 -0.362383 0.444375
-0.163862 -0.352236 0.462528
-0.241743 -0.357534 0.476256
-0.229976 -0.388350 0.436613
-0.275554 -0.271642 0.461395
-0.259346 -0.286151 0.488511
-0.261132 -0.247631 0.456700
-0.258900 -0.239483 0.532054
-0.262508 -0.252554 0.554779
-0.315335 -0.215263 0.566420
-0.288112 -0.171308 0.609517
-0.334106 -0.150211 0.581798
-0.336754 -0.168473 0.571392
-0.310812 -0.189242 0.546896
-0.255375 -0.104424 -0.013544
-0.240290 -0.134470 -0.044676
-0.273981 -0.090359 -0.036872
-0.315367 -0.082077 0.544595
-0.313367 -0.039062 0.540779
-0.274686 -0.078913 0.602844
-0.280758 -0.043161 0.598264
-0.267359 -0.008272 0.603518
-0.312293 -0.059276 0.605347
-0.289557 0.165112 0.491393
-0.276016 0.180709 0.541958
-0.317162 0.134680 0.530567
-0.298195 0.046332 0.151572
-0.248173 0.014153 0.179566
-0.194982 0.112486 0.227201
-0.226538 0.110295 0.181983
-0.284491 0.082363 0.115961
-0.177466 0.162303 0.392673
-0.227578 0.081471 0.480853
-0.260253 0.154705 0.409622
-0.103716 0.165271 -0.080171
-0.220067 0.173937 -0.094598
-0.134063 0.136434 0.167254
-0.111705 0.141392 0.189901
-0.177864 0.213336 0.353566
0.010903 0.180104 0.611306
-0.011621 0.193963 0.542779
-0.295325 0.171663 0.671631
-0.246481 0.075793 0.657930
-0.269412 0.140921 0.676614
-0.235318 0.159585 0.647848
0.016313 -0.019386 0.821374
-0.053272 0.001581 0.847827
-0.132356 0.063495 0.746261
-0.094379 0.024539 0.800922
-0.063218 0.018164 0.827564
-0.050050 0.040340 0.797145
-0.097632 0.055381 0.847361
-0.062271 -0.021287 0.836602
0.001984 -0.457072 0.779373
0.014421 -0.434789 0.821974
-0.057000 -0.419731 0.892152
-0.024114 -0.432796 0.863010
-0.026750 -0.396859 0.799017
-0.098761 -0.376027 0.878970
-0.109389 -0.352909 0.896909
-0.031511 -0.280770 0.952438
-0.024333 -0.281691 0.919130
-0.221279 -0.150433 0.865023
-0.207488 -0.233212 0.875517
-0.259060 -0.195380 0.872631
-0.225483 -0.166927 0.915906
-0.186195 -0.129946 0.847358
-0.227797 -0.105125 0.862999
-0.288211 -0.099541 0.825851
-0.240668 -0.160123 0.775184
-0.231939 -0.218346 0.779721
-0.204960 0.228351 0.651525
-0.261013 0.196964 0.593321
0.000705 0.151959 0.499959
-0.034631 0.185667 0.522246
-0.049805 0.182816 0.452155
-0.253040 0.191856 0.410969
-0.315565 0.182158 0.019793
-0.287979 0.221403 0.061607
-0.267400 0.228487 -0.061290
-0.230261 0.197583 -0.069084
-0.124543 0.120309 0.327002
-0.111680 0.129256 0.272608
-0.090891 0.169131 0.239795
-0.185668 0.106304 0.205783
-0.162553 0.164051 0.284628
-0.196510 0.114093 0.318131
-0.208286 0.113051 0.403982
-0.196438 0.027252 0.389830
-0.176940 0.035340 0.464291
-0.286943 0.076365 0.487209
-0.281327 0.054730 0.529212
-0.295605 0.041728 0.506733
-0.294257 0.078748 0.502416
-0.310543 0.054099 0.603058
-0.248148 -0.007008 0.361553
-0.207221 -0.037218 0.338853
-0.200721 0.037836 0.367168
-0.229769 -0.024761 0.365658
-0.244700 -0.048796 0.337399
-0.219292 -0.092978 0.456672
-0.230692 0.000257 0.459345
-0.246037 -0.169347 0.097884
-0.299078 -0.148932 0.128375
-0.301516 -0.158074 0.122955
-0.308917 -0.094560 0.099148
-0.249012 -0.279351 0.069585
-0.230605 -0.255626 0.071771
-0.177036 -0.287612 0.023257
-0.189171 -0.376191 0.197176
-0.217114 -0.336109 0.164820
-0.159404 -0.339738 0.121005
-0.194718 -0.295717 0.161534
-0.183080 -0.257844 0.123810
-0.211318 -0.348123 0.145512
-0.199651 -0.240051 0.171358
-0.227176 -0.313304 0.158226
-0.083552 -0.431080 0.653400
-0.124295 -0.479352 0.603671
-0.161127 -0.407793 0.596312
-0.140121 -0.397093 0.627920
-0.209901 -0.426586 0.520308
-0.133216 -0.435095 0.576060
-0.196590 -0.368765 0.553977
-0.141606 -0.429788 0.545639
-0.113046 -0.460038 0.559708
0.024015 -0.446987 0.436486
-0.013635 -0.448341 0.427838
0.006628 -0.429826 0.403799
-0.087975 -0.425841 0.373459
-0.072954 -0.460139 0.367760
-0.051886 -0.460995 0.314087
-0.025030 -0.471537 0.379545
-0.044613 -0.419551 0.357141
-0.394782 -0.127198 -0.418427
-0.348381 -0.038418 -0.374379
-0.176621 0.072706 -0.440438
-0.032398 0.149694 -0.601750
-0.011251 0.130251 -0.532275
-0.072742 0.164989 -0.614825
-0.221308 0.083018 -0.435367
-0.284133 0.039753 -0.359281
-0.237364 0.063560 -0.398895
-0.043697 -0.087089 -0.538348
-0.063743 -0.060754 -0.531714
-0.398216 -0.158178 -0.363310
-0.427502 -0.129412 -0.405999
-0.221214 -0.092421 -0.313414
-0.211426 -0.183829 -0.088216
-0.198950 -0.174206 -0.171656
-0.135425 -0.227676 -0.128604
-0.133341 -0.192987 -0.148005
-0.241045 0.040992 -0.308021
-0.235882 0.186283 -0.390067
-0.237539 0.143435 -0.394973
-0.248794 0.244466 -0.399703
-0.119927 0.214871 -0.261047
-0.082340 0.216811 -0.235062
-0.133692 0.252744 -0.228671
-0.073092 0.258959 -0.146097
0.011398 0.249260 -0.204485
-0.164884 -0.188487 -0.035297
0.158415 -0.228427 0.959726
0.155611 -0.200153 0.925523
0.087181 -0.236649 0.968455
0.081020 -0.179606 0.937542
0.132665 -0.149075 0.933230
0.093809 -0.131408 0.901409
0.081336 -0.119413 0.937512
0.201626 0.132606 0.646995
0.231205 0.125345 0.706162
0.247989 0.232808 0.645826
0.207368 0.165943 0.654715
0.029552 0.197648 0.523647
0.064116 0.187515 0.553045
0.074396 0.192907 0.498012
-0.005961 0.134376 0.576621
-0.025331 0.170138 0.615423
0.106640 0.133405 0.578877
0.059823 0.166876 0.534329
0.048183 0.139016 0.543204
0.091844 0.163474 0.530486
0.178011 0.215915 0.370650
0.140613 0.137924 0.178322
0.082757 0.200103 0.172653
0.117843 0.135181 0.129639
0.193094 0.123009 -0.061843
0.301779 0.203073 0.090763
0.228883 0.187982 0.153523
0.257675 0.161380 0.137776
0.200330 0.225804 0.119899
0.238099 0.156780 0.196367
0.211672 0.125285 0.176384
