0.081196 0.080241 0.776468
0.094387 0.076590 0.734865
0.029178 -0.435162 0.849648
0.008585 -0.460753 0.790504
0.066961 -0.357004 0.958477
-0.224857 0.061416 -0.154055
-0.257183 0.025823 -0.250107
-0.224089 0.046032 -0.212772
-0.086857 0.288664 -0.394932
-0.293542 -0.117358 -0.291548
-0.072734 0.234724 -0.633627
-0.200112 0.151748 -0.443412
-0.020183 -0.051524 -0.482838
-0.313964 -0.123508 -0.443008
-0.348723 -0.131201 -0.460210
-0.083088 -0.421176 0.084750
-0.079306 -0.380805 0.072930
-0.127570 -0.348162 0.104255
-0.207243 -0.316573 0.241952
-0.174127 -0.303399 0.295450
-0.244568 -0.165327 0.328911
-0.256659 -0.180976 0.416746
-0.217100 -0.210127 0.417596
-0.260993 -0.003136 0.044069
-0.244840 0.016688 0.043230
-0.272531 -0.064148 0.694271
-0.272189 0.021126 0.671252
-0.271957 -0.101731 0.734127
-0.274812 -0.065269 0.743920
-0.314239 0.159774 0.575061
-0.038003 0.208641 0.147254
-0.183602 0.192158 0.374156
-0.287481 0.176829 0.450675
-0.284040 -0.104708 0.825519
-0.213626 0.060923 0.766825
-0.102417 -0.186884 0.951550
-0.123855 0.206112 -0.536246
-0.097726 -0.081329 0.897254
-0.202018 0.125901 0.667964
-0.050471 0.122245 0.671673
0.005502 0.168043 0.591331
-0.066306 0.182840 0.392904
-0.083972 0.179385 0.428692
-0.216330 0.209551 -0.055783
-0.293018 0.150244 0.045624
-0.256966 0.144391 -0.001186
-0.071089 -0.471783 0.665508
-0.191931 -0.336799 0.724522
-0.144805 -0.378252 0.718065
-0.250597 -0.193080 0.203428
-0.212174 -0.216044 0.007289
-0.112094 -0.395503 0.349255
-0.133645 -0.385362 0.399484
-0.004008 -0.394612 0.086276
-0.068151 -0.435461 0.101570
-0.055512 0.256889 -0.551151
-0.206408 -0.202725 -0.354911
-0.246590 -0.063315 -0.197556
-0.164428 0.276716 -0.442433
-0.216291 0.258333 -0.360802
-0.145508 0.221182 -0.402144
-0.222281 0.173010 -0.324561
-0.039204 -0.281587 -0.207242
-0.165377 0.055771 -0.028404
-0.157785 0.099718 -0.086833
0.035026 -0.326009 0.918719
0.078198 -0.042527 0.896701
0.220294 0.033849 0.727652
0.208231 -0.038812 0.855881
0.089252 0.166591 0.596423
0.068341 0.151611 0.635813
0.039153 0.054453 0.766651
0.023115 0.110532 0.723917
0.149499 0.142806 0.353326
0.238360 0.094423 0.241746
0.231521 0.040044 0.240228
0.156193 0.114814 0.346618
0.099668 -0.425460 0.726188
0.081883 -0.461631 0.666668
0.032926 -0.466022 0.748559
0.227582 -0.104526 0.274112
0.207589 -0.005269 0.319575
0.267098 -0.003060 0.241311
0.207741 -0.279742 0.022414
0.190309 -0.265622 0.349565
0.084608 -0.392505 -0.058887
-0.011307 -0.371575 0.015611
0.239996 0.057460 -0.334209
0.098246 0.226525 -0.534731
0.364654 -0.168374 -0.410948
0.236809 -0.063293 -0.270348
0.155298 0.236217 -0.164164
0.173675 0.202669 -0.238082
0.206345 0.248873 -0.273276
0.185674 0.192997 -0.183010
0.113576 -0.333988 -0.104139
0.103575 -0.306327 -0.088748
0.228706 -0.011567 -0.055688
0.118344 -0.275902 -0.194536
0.093228 -0.244475 -0.322317
0.199019 0.238909 -0.311963
0.153319 0.219750 -0.337314
0.251078 0.127890 -0.339597
0.094734 -0.175785 -0.335559
0.135185 -0.151278 -0.391732
0.426478 -0.170881 -0.387242
0.095057 -0.138900 -0.501860
0.292438 0.081190 -0.393340
0.051448 0.077836 -0.585186
0.391937 -0.069576 -0.295893
-0.024060 -0.440201 0.445574
0.173479 -0.367625 0.566607
0.139512 -0.441853 0.581545
0.079005 -0.428254 0.674232
0.173494 -0.302704 0.210795
0.199789 -0.280220 0.226856
0.222362 -0.296990 0.195131
0.201459 -0.324671 0.065582
0.176704 -0.321623 0.051986
0.162382 -0.310656 0.090006
0.226199 -0.207612 0.161169
0.206636 -0.249230 0.131311
0.258503 -0.116663 0.174330
0.299274 -0.160064 0.136804
0.226779 -0.358359 0.717771
0.175172 -0.399053 0.750002
0.115988 -0.437399 0.729810
0.170379 0.124057 0.210807
0.118420 0.119878 0.224842
0.131356 0.119990 0.341904
0.137040 0.139437 -0.106284
0.029215 0.217796 0.253683
0.028571 0.165631 0.348151
0.016857 0.192830 0.317213
0.257837 0.126054 0.691301
0.201375 0.016885 0.841845
0.115651 0.043111 0.770077
0.244828 -0.298221 0.680279
0.260134 -0.274882 0.738663
0.246471 -0.291889 0.811463
-0.129687 -0.270644 -0.176349
-0.119490 -0.303211 -0.089571
-0.216656 0.188075 -0.241527
-0.161703 0.198772 -0.255868
-0.266317 0.078249 -0.328397
-0.244579 0.104192 -0.306759
-0.330903 -0.049749 -0.323349
-0.123363 -0.005015 -0.518750
-0.081389 0.279823 -0.544097
-0.064508 0.111797 -0.532954
-0.177739 -0.400189 0.256893
-0.188717 -0.327733 0.338526
-0.192804 -0.305507 0.359552
-0.195595 -0.316067 -0.044061
-0.228606 -0.153116 -0.028855
-0.248080 0.033793 0.360973
-0.259392 0.027068 0.270932
-0.222121 -0.038628 0.267784
-0.010591 -0.493378 0.681316
-0.035655 -0.424782 0.745503
-0.137111 0.153536 0.434348
-0.100835 0.165275 0.380624
-0.044254 0.147452 0.353163
-0.041507 0.164068 0.342257
-0.002461 0.191272 0.244006
-0.271433 0.080413 0.679113
-0.163771 -0.006951 0.839062
-0.256703 -0.298429 0.766032
-0.216408 -0.289535 0.814833
-0.226046 -0.281706 0.707010
-0.135743 0.215959 0.555986
-0.149421 -0.217280 0.927970
-0.202481 -0.301172 0.837599
-0.142472 -0.322185 0.886105
-0.166050 -0.266847 0.869708
-0.172498 -0.274848 0.891650
-0.190673 0.081659 0.719006
-0.139600 0.214322 0.457760
-0.078042 0.162426 0.549486
-0.072121 0.217111 0.117582
-0.066969 0.233666 -0.016808
-0.156154 0.137785 -0.044810
-0.237197 0.121259 -0.023780
-0.280726 0.196084 0.503411
-0.275770 0.152360 0.507259
-0.259257 0.050390 0.680095
-0.227455 -0.185613 0.225146
-0.215353 -0.250222 0.356189
-0.306273 -0.287394 0.540520
-0.263681 -0.320290 0.618821
-0.293681 -0.328554 0.576953
-0.013656 -0.447305 0.513019
-0.046380 -0.488476 0.523425
-0.143675 0.031207 -0.538067
-0.267728 0.153810 -0.425448
-0.287083 0.151054 -0.447511
-0.138639 -0.086325 -0.487399
-0.215147 -0.187604 -0.317959
-0.131095 -0.196266 -0.250910
-0.161695 -0.126274 -0.273285
-0.041577 0.290478 -0.330069
-0.104397 0.274349 -0.261886
-0.191219 -0.002385 -0.145697
-0.203505 -0.032059 -0.169157
-0.133508 0.160222 -0.135075
-0.118201 0.182444 -0.137661
0.192508 0.174544 0.592270
0.092578 -0.242423 0.966104
0.238766 -0.226755 0.870504
0.215113 -0.275119 0.795528
0.165215 -0.299350 0.833964
0.178248 -0.269385 0.864874
0.149626 -0.299278 0.865293
0.130080 -0.333983 0.919117
0.123299 0.161618 0.467815
0.158242 0.220225 0.541270
0.042178 0.227740 0.090309
0.317069 0.154600 0.601629
0.331816 -0.097306 0.558289
0.295967 -0.079817 0.633264
0.226991 -0.132580 -0.033609
0.224634 -0.229370 0.423932
0.218704 -0.216562 0.318688
0.247951 -0.297806 0.344358
0.225705 -0.307923 0.319842
0.212264 -0.343087 0.253227
0.156128 -0.349208 0.078446
0.150718 -0.351219 0.123493
0.106977 -0.432325 0.133572
0.433693 -0.138033 -0.433182
0.279248 -0.121930 -0.395677
0.245962 -0.065758 -0.468437
0.057519 0.082381 -0.563235
0.035203 -0.034557 -0.488726
0.238809 0.177596 -0.502295
0.409561 -0.130728 -0.423371
0.265285 -0.155861 -0.298913
0.203937 -0.041488 -0.209861
0.250772 -0.081230 -0.284723
0.175248 0.057102 -0.118569
0.038302 -0.307435 -0.213453
0.208875 -0.138651 -0.044648
0.124532 0.175872 -0.123874
0.211861 -0.043025 -0.205604
0.053808 0.233198 -0.249414
0.081971 0.282756 -0.292796
0.113040 0.268727 -0.455339
0.239913 -0.121827 -0.252935
0.178758 -0.160045 -0.291996
0.316797 -0.137925 -0.361815
0.147326 -0.146424 -0.455155
0.083013 0.259958 -0.535723
0.249011 0.119073 -0.461109
0.104766 -0.038526 -0.507045
0.122549 0.019300 -0.478076
0.053160 -0.431578 0.458236
-0.016956 -0.455105 0.529343
-0.010804 -0.450984 0.511283
0.212197 -0.368873 0.645451
0.259265 -0.351564 0.602062
0.243515 -0.269388 0.569194
0.262424 -0.128507 0.302000
0.229832 -0.176674 0.274550
0.264777 -0.211411 0.242153
0.227309 -0.180626 0.256495
0.280770 -0.040751 0.150143
0.247485 -0.042113 0.147922
0.296695 0.141453 0.471183
0.285434 0.165938 -0.041501
0.175313 0.096120 -0.038257
0.261855 0.153834 -0.005877
0.318369 0.231407 0.014433
0.031403 0.190213 0.179974
0.292346 0.114587 0.631787
0.222603 -0.063677 0.802757
0.253544 -0.154056 0.820144
0.230883 -0.190193 0.845313
-0.195080 -0.017118 -0.097279
-0.183459 0.115659 -0.064556
-0.094531 -0.206902 -0.293222
-0.106585 -0.269256 -0.229865
-0.214022 0.212217 -0.300015
-0.289427 0.151996 -0.343237
-0.077728 -0.235704 -0.325002
-0.156869 -0.132736 -0.446369
-0.028964 0.204567 -0.590770
-0.074280 0.085251 -0.515830
-0.223574 -0.117090 -0.441415
-0.398440 -0.102165 -0.324155
-0.010310 -0.503857 0.600116
-0.035398 -0.456545 0.566628
-0.079468 -0.435230 0.681057
-0.217968 -0.368921 0.496546
-0.217311 -0.344647 0.481420
-0.324950 -0.226355 0.583850
-0.315122 -0.172238 0.510434
-0.321515 -0.150947 0.549614
-0.323887 -0.247171 0.618730
-0.283980 -0.209935 0.615705
-0.261231 -0.115878 -0.034130
-0.223828 -0.126716 -0.007668
-0.314340 -0.002928 0.627927
-0.282022 -0.007509 0.596099
-0.329269 -0.071189 0.597582
-0.328831 -0.142249 0.530561
-0.307911 0.102347 0.107913
-0.237301 0.177975 0.426434
-0.166896 0.087858 0.409330
-0.170965 0.105441 0.220473
-0.143776 0.120468 0.176185
-0.097724 -0.014259 0.905286
-0.010637 0.087047 0.787313
-0.067604 0.096042 0.760996
-0.027760 0.067648 0.824318
-0.130657 -0.345624 0.885380
-0.212890 -0.200488 0.814290
-0.227261 -0.221614 0.844376
-0.206677 -0.107765 0.824915
-0.233873 -0.134992 0.867219
-0.271745 -0.071148 0.852666
-0.078758 0.147539 0.499271
-0.244177 0.213026 0.097797
-0.295344 0.241895 0.035559
-0.175187 0.138336 0.342069
-0.095682 0.190007 0.184309
-0.139476 0.154378 0.264145
-0.232799 0.072331 0.365199
-0.305111 -0.003440 0.575613
-0.231005 0.014777 0.408397
-0.238587 -0.113860 0.376783
-0.265816 -0.113979 0.083056
-0.293951 -0.199764 0.106925
-0.178578 -0.264258 0.088070
-0.195863 -0.301608 0.097806
-0.219917 -0.243084 0.156255
-0.273221 -0.242424 0.150440
-0.111564 -0.433031 0.589875
-0.118525 -0.479284 0.584828
-0.140149 -0.456218 0.577919
-0.179489 -0.410002 0.620063
0.013278 -0.439564 0.291018
-0.012955 -0.431765 0.347634
-0.391851 -0.102317 -0.353429
-0.289372 0.034506 -0.353125
-0.047407 -0.104014 -0.512843
-0.250772 -0.156688 -0.306942
-0.140303 -0.206102 -0.103495
-0.277619 0.169428 -0.381603
-0.012092 0.261945 -0.223405
-0.197682 -0.205589 -0.045925
0.124033 -0.205336 0.956623
0.031381 -0.111559 0.912039
0.007507 -0.085495 0.953362
0.024794 -0.097306 0.946164
0.201977 0.167953 0.658374
0.078042 0.136687 0.530981
0.051235 0.177681 0.559605
0.186950 0.218854 0.111234
0.286256 -0.110626 0.687822
0.246588 -0.215975 0.758479
0.244812 -0.244579 0.789652
0.257115 -0.209661 0.729144
0.248931 0.075511 0.001165
0.286221 -0.020062 0.207171
0.056752 -0.366909 0.006006
0.117194 -0.350242 -0.030353
0.265430 -0.004229 -0.369939
-0.004185 0.104038 -0.524136
0.039575 0.170594 -0.641259
0.408483 -0.132543 -0.415067
0.035652 -0.230698 -0.352719
0.060244 -0.207672 -0.365289
0.014735 -0.133307 -0.437003
0.000693 -0.148257 -0.480057
0.260803 0.020183 -0.281638
0.047086 0.270702 -0.397035
0.277388 0.142640 -0.279952
0.224543 0.101094 -0.248801
0.160626 0.156276 -0.184842
0.128201 0.166181 -0.200687
0.173859 -0.249194 -0.139091
0.093100 0.206398 -0.175753
0.239266 0.176758 -0.407426
0.210010 -0.176756 -0.158058
0.385896 -0.176412 -0.435255
0.091560 0.287225 -0.499458
0.035032 0.254686 -0.481958
0.107600 0.170473 -0.522782
0.177283 -0.055356 -0.447689
0.082863 -0.482564 0.585414
0.115166 -0.436187 0.621463
0.245896 -0.294818 0.489812
0.252688 -0.341595 0.451390
0.238646 -0.360088 0.435416
0.323719 -0.119348 0.654535
0.334321 -0.139714 0.647504
0.324303 -0.217940 0.564141
0.262725 -0.197262 0.497242
0.272168 -0.066867 0.356297
0.251804 0.010986 0.374300
0.259493 0.026923 0.567186
0.260520 0.097129 0.502294
0.218984 0.049886 0.213514
0.227668 0.018222 0.218624
0.287293 0.092370 0.185997
0.248956 0.065313 0.485002
0.217720 0.116212 0.450307
0.209329 0.190498 -0.031116
0.132391 0.178061 0.121504
0.208188 0.163617 0.189123
0.250791 0.258439 0.566263
0.134849 -0.395159 0.834459
0.113422 -0.322241 0.900234
-0.225564 -0.139410 -0.044908
-0.167018 -0.098376 -0.125203
-0.226412 -0.075913 -0.090145
-0.029947 -0.203636 -0.320578
-0.029979 -0.327535 -0.216067
-0.294617 -0.022505 -0.268435
-0.399229 -0.141294 -0.438299
-0.269774 0.063886 -0.430997
-0.427007 -0.084872 -0.394234
-0.124066 -0.335521 0.011855
-0.104089 -0.364694 -0.035596
-0.232214 0.026288 -0.023850
-0.311520 -0.252619 0.680489
-0.297674 -0.221485 0.736069
-0.291398 -0.242541 0.734883
-0.312919 -0.148725 0.757054
-0.324111 -0.165390 0.733992
-0.226027 0.110756 0.482928
-0.249397 0.171734 0.122369
-0.228278 0.169773 0.145464
-0.233107 0.229900 -0.059428
-0.204498 0.182175 0.151784
-0.116521 0.177696 0.092754
-0.122268 0.118926 0.652996
-0.198568 -0.345550 0.774956
-0.153740 -0.362076 0.771106
-0.079373 -0.340896 0.831903
-0.081175 -0.287002 0.965644
0.003800 -0.213851 0.976997
0.013889 -0.180419 0.939071
-0.096691 -0.172714 0.965040
-0.120553 -0.164265 0.946492
-0.033629 -0.249209 0.957143
-0.098819 -0.107164 0.938684
-0.160918 -0.072530 0.871976
-0.180144 -0.114119 0.901661
-0.159242 -0.059261 0.866525
-0.228837 -0.066340 0.847310
-0.210310 -0.172596 0.906412
-0.188436 -0.138975 0.942986
-0.202625 -0.147025 0.929223
-0.259002 0.207951 0.533953
-0.246796 0.202351 0.642317
-0.298894 0.153514 0.368894
-0.128920 0.191535 0.438188
-0.122262 0.213825 0.040310
-0.069498 0.170925 0.011113
-0.149398 0.189665 -0.004370
-0.153257 0.199421 0.034057
-0.321160 0.220356 -0.028110
-0.292538 0.153063 0.004328
-0.225242 0.135345 0.435198
-0.241152 0.103734 0.039267
-0.297599 0.104664 0.085290
-0.308256 0.080114 0.122890
-0.300447 0.095365 0.600337
-0.302894 0.073354 0.595802
-0.305351 0.079428 0.638818
-0.251988 0.088062 0.658077
-0.228263 -0.076860 0.456403
-0.241254 -0.022159 0.484820
-0.284432 -0.097505 0.471167
-0.306888 -0.093485 0.470084
-0.297906 -0.130116 0.498509
-0.277850 -0.044236 0.520694
-0.290837 -0.016300 0.528679
-0.265984 -0.066549 0.082360
-0.298098 -0.118228 0.163994
-0.302945 -0.034525 0.173563
-0.270842 -0.098748 0.187083
-0.232175 -0.101497 0.404841
-0.280628 -0.184068 0.411838
-0.241585 -0.159100 0.421912
-0.264968 -0.199841 0.411165
-0.243345 -0.272684 0.503225
-0.263053 -0.225300 0.503879
-0.201001 -0.210686 -0.000896
-0.200978 -0.202343 -0.016486
-0.132297 -0.414202 0.535266
-0.124517 -0.465813 0.529417
-0.156481 -0.403001 0.541188
-0.140931 -0.468761 0.476676
-0.149116 -0.433005 0.538954
-0.153489 -0.394085 0.446351
-0.125434 -0.441547 0.419760
-0.129717 -0.441900 0.495346
-0.180555 -0.387407 0.480366
-0.018354 -0.412149 0.267434
-0.036298 -0.408747 0.253755
-0.039749 -0.450654 0.179789
-0.089448 -0.449219 0.220771
-0.269824 -0.132456 -0.507802
-0.315753 -0.113875 -0.447590
-0.189002 -0.068811 -0.389461
-0.089400 0.076159 -0.543058
-0.134551 0.134706 -0.479589
-0.193921 -0.072248 -0.447898
-0.198877 -0.028538 -0.488354
-0.226441 0.102807 -0.491602
-0.149706 0.142963 -0.510539
-0.014871 0.152694 -0.599410
-0.118350 0.200231 -0.515421
-0.416194 -0.131760 -0.362271
-0.416150 -0.181078 -0.422788
-0.050406 -0.137003 -0.477113
-0.023102 -0.184636 -0.393460
-0.029891 -0.233330 -0.368267
-0.045652 -0.217919 -0.359464
-0.090595 -0.212170 -0.421217
-0.033588 -0.177761 -0.450544
-0.331056 -0.022286 -0.351851
-0.323962 -0.058341 -0.282943
-0.093389 0.243131 -0.395011
-0.026148 0.252426 -0.305952
-0.225878 0.096148 -0.231599
-0.230401 0.143388 -0.224924
-0.215599 0.156736 -0.210014
-0.205129 0.154222 -0.217058
-0.266018 0.134910 -0.309477
-0.246444 0.138280 -0.191289
-0.179643 0.136845 -0.146509
-0.030820 0.208239 -0.073816
-0.091810 0.228485 -0.078633
-0.032523 0.188492 -0.005560
-0.033086 0.183773 -0.059859
0.093223 0.194990 -0.002190
0.001064 -0.177600 0.920333
0.017424 -0.171352 0.968119
0.039017 -0.232369 0.956794
0.064839 -0.269455 0.965406
0.047467 -0.191630 0.976834
0.199108 -0.096785 0.904471
0.209570 -0.127569 0.918325
0.108080 -0.100279 0.949663
0.156904 -0.135877 0.896811
0.286283 0.238317 0.543874
0.260143 0.217345 0.578122
0.240099 0.230237 0.598613
0.312369 0.206258 0.431081
0.291660 0.179654 0.384041
0.112454 0.143146 0.450960
0.135063 0.227798 0.091202
0.131841 0.210317 0.036665
0.179442 0.226888 -0.100863
0.316569 0.149610 0.027776
0.300966 0.142423 0.107495
0.307433 0.161727 0.040730
0.268200 0.044959 0.472030
0.244049 0.063859 0.498418
0.237736 0.006419 0.534464
0.256003 -0.043954 0.750075
0.316619 -0.103902 0.754631
0.264375 -0.059618 0.706334
0.332409 -0.114543 0.703429
0.322964 -0.053906 0.662216
0.271276 0.045053 0.694176
0.280770 0.039496 0.658480
0.248656 0.007778 0.701371
0.311730 -0.033355 0.707870
0.313778 -0.102913 0.087410
0.258571 -0.011764 0.041426
0.288956 -0.083856 0.040495
0.293294 0.075540 0.035207
0.250481 0.001764 0.039003
0.272067 -0.167615 0.208287
0.230513 -0.200043 0.172443
0.283229 -0.138071 0.224239
0.240192 -0.169286 0.066241
0.261814 -0.190101 0.040274
0.218157 -0.259394 -0.003962
0.140790 -0.422181 0.391658
0.110135 -0.415600 0.395648
0.166240 -0.387758 0.394369
0.133095 -0.397064 0.309280
0.146193 -0.405174 0.378894
0.162659 -0.395507 0.369315
0.076060 -0.443078 0.138376
0.034550 -0.408986 0.183034
0.047265 -0.405252 0.082985
0.033958 -0.446467 0.130326
0.057852 -0.379941 0.075231
0.030631 -0.407274 0.095037
0.267368 -0.077598 -0.361122
0.045190 -0.018520 -0.541341
0.050776 0.059290 -0.532225
0.197673 0.086932 -0.435127
0.042927 0.179304 -0.585627
0.122566 -0.159211 -0.341563
0.182133 -0.150397 -0.425066
0.182041 -0.202691 -0.375557
0.180182 -0.143789 -0.429895
0.263023 -0.197160 -0.394619
0.233331 -0.153983 -0.351641
0.270833 -0.200259 -0.425424
0.136994 -0.108265 -0.462675
0.138813 -0.109346 -0.421375
0.135816 -0.131743 -0.448698
0.028092 0.284314 -0.443479
-0.015555 0.275775 -0.380642
0.259388 -0.028369 -0.217638
0.223458 -0.014946 -0.204756
0.230730 -0.000164 -0.278324
0.266506 0.061808 -0.244156
0.280504 0.060844 -0.247883
0.205636 0.067750 -0.168081
0.071962 0.190097 -0.132470
0.204998 -0.229353 -0.074392
0.160544 -0.222839 -0.113031
0.163635 -0.273051 -0.116714
0.176668 -0.241857 -0.090661
0.194209 -0.119485 -0.083466
0.179094 -0.073461 -0.052675
0.220182 -0.101648 -0.124777
0.035714 -0.276814 -0.239296
0.022795 -0.291524 -0.234061
0.071401 -0.219503 -0.309496
0.075300 -0.263806 -0.252184
0.016899 -0.268103 -0.318406
0.072252 -0.323781 -0.221469
0.076948 -0.312464 -0.256986
0.272415 0.174812 -0.345656
0.248204 0.245779 -0.411159
0.094424 0.263210 -0.465387
0.274937 -0.031603 -0.325828
0.334014 -0.116150 -0.293792
0.413570 -0.129337 -0.357254
0.110027 0.160381 -0.499949
0.141243 0.209876 -0.521044
0.072823 0.110318 -0.521107
0.235911 -0.042617 -0.413534
0.322180 -0.099343 -0.501387
0.267202 -0.139600 -0.488713
0.250471 -0.121153 -0.439444
0.059267 -0.426917 0.278207
0.079584 -0.459540 0.271423
0.020226 -0.406554 0.232531
0.058699 -0.417042 0.190495
0.037872 -0.407379 0.224319
0.130842 -0.430989 0.498005
0.181346 -0.381212 0.478772
0.068745 -0.473331 0.453302
0.083229 -0.418992 0.436128
0.074019 -0.468233 0.509954
0.132640 -0.404020 0.419437
0.230300 -0.175673 -0.044022
0.217381 -0.239730 0.443591
0.255902 -0.259317 0.379044
0.250060 -0.155788 0.401911
0.305811 -0.136663 0.496212
0.314990 -0.138488 0.498313
0.245431 -0.141334 0.476149
0.274221 -0.184619 0.497248
0.250080 -0.224565 0.476389
0.310123 -0.004716 0.116425
0.244762 -0.080375 0.455054
0.280182 -0.095651 0.500659
0.268206 -0.064099 0.432791
0.276645 -0.073807 0.458393
0.296115 -0.066113 0.535823
0.256928 0.040204 0.616743
0.314595 0.134033 0.556200
0.310317 0.115685 0.635875
0.310591 0.109643 0.618167
0.302947 0.091242 0.644962
0.251225 0.088771 0.064015
0.302024 0.119508 0.060138
0.255347 0.135902 0.476619
0.230646 0.136459 0.396954
0.280862 0.157330 0.422177
0.220944 0.202655 -0.057209
0.145665 0.182199 -0.093490
0.051323 0.177955 0.420358
0.055903 0.164112 0.393772
0.074233 0.190860 0.471309
0.284643 0.185485 0.387125
0.120623 0.166809 0.632624
0.142198 0.153857 0.627036
-0.004578 0.032042 0.756758
0.058596 0.032617 0.777980
0.062869 0.001201 0.848892
-0.007216 -0.015836 0.815990
0.141174 0.015097 0.889329
0.094930 -0.067639 0.869383
0.094486 -0.035035 0.848966
0.064031 0.003536 0.824825
0.096627 0.025576 0.805716
0.094315 0.060774 0.789628
0.020107 -0.433546 0.840351
0.059054 -0.401124 0.809582
0.093697 -0.387639 0.839442
0.074383 -0.360667 0.894351
-0.047737 0.249240 -0.093720
-0.078669 0.239636 -0.130116
-0.028058 0.214036 -0.116744
-0.073585 0.204532 -0.090948
-0.205659 0.023052 -0.121634
-0.222990 0.064578 -0.115027
-0.275978 -0.044465 -0.264273
-0.263122 0.009836 -0.284925
-0.268077 0.033169 -0.205425
-0.075184 0.292417 -0.413090
-0.010370 0.245441 -0.438534
-0.071144 -0.189359 -0.394108
-0.107943 -0.153993 -0.367714
-0.243402 -0.168818 -0.381098
-0.387466 -0.128340 -0.473151
-0.394453 -0.150318 -0.415830
-0.359131 -0.130544 -0.417847
-0.041407 -0.045545 -0.538608
-0.069897 -0.046913 -0.512848
-0.048671 0.068724 -0.503579
-0.231991 -0.067360 -0.454349
-0.246354 -0.080626 -0.377294
-0.465629 -0.112848 -0.411945
-0.431711 -0.125941 -0.470878
-0.373176 -0.135781 -0.441764
-0.079281 -0.374964 0.127049
-0.104103 -0.361273 0.168718
-0.124884 -0.389620 0.185606
-0.170047 -0.327387 0.078059
-0.155872 -0.394179 0.096249
-0.092013 -0.366457 0.042638
-0.079428 -0.411352 0.026040
-0.194797 -0.378090 0.202254
-0.162725 -0.318263 0.280538
-0.212241 -0.293773 0.204022
-0.207809 -0.251318 0.335842
-0.245141 -0.290297 0.336763
-0.233398 -0.256115 0.300002
-0.218976 -0.280261 0.297480
-0.218855 -0.220566 0.248855
-0.183488 -0.327478 0.259261
-0.233347 -0.262283 0.385964
-0.220036 -0.168874 0.387495
-0.226676 -0.107817 0.375626
-0.262892 -0.059840 0.057025
-0.258618 -0.042651 0.025847
-0.309913 -0.033265 0.057449
-0.307514 0.013572 0.059150
-0.265635 -0.024302 0.072827
-0.281455 0.005777 0.058977
-0.307730 0.061438 0.030998
-0.305551 -0.094105 0.629257
-0.282202 -0.025349 0.672609
-0.329658 -0.059073 0.657270
-0.280260 -0.108694 0.748994
-0.271284 -0.081602 0.740778
-0.291977 -0.034076 0.733000
-0.306660 -0.013695 0.709091
-0.279533 0.171171 0.626642
-0.215473 0.086705 -0.022332
-0.161701 0.103074 -0.034532
0.011308 0.174777 0.199571
-0.009964 0.169395 0.183757
0.024367 0.179644 0.078466
-0.043773 0.221554 0.136982
-0.085255 0.220869 0.142855
-0.101928 0.179018 0.136568
-0.175339 0.140331 0.671637
-0.145331 0.141162 0.593841
-0.216103 -0.089218 0.807050
-0.218602 -0.021921 0.832166
-0.222432 0.017758 0.764689
-0.195596 -0.022886 0.842672
-0.278422 -0.007229 0.722200
-0.245290 -0.081764 0.761747
-0.030855 -0.073891 0.920114
-0.067420 -0.033899 0.909518
-0.039798 -0.077369 0.897228
-0.090052 -0.044036 0.913954
-0.176147 -0.190367 0.897835
-0.112423 -0.196050 0.930884
-0.109672 -0.212905 0.929971
0.002057 -0.299833 0.940890
-0.199197 0.179737 -0.516978
-0.148891 0.226019 -0.489448
-0.017483 -0.363881 0.873080
-0.080773 -0.116402 0.941725
-0.107065 -0.081107 0.893755
-0.105643 -0.091783 0.935744
-0.038847 -0.150477 0.911864
-0.044201 -0.090078 0.904503
-0.240822 0.206922 0.626183
-0.233243 0.157619 0.629351
-0.241035 0.191715 0.686202
-0.190406 0.124040 0.670659
-0.027387 0.060054 0.709503
-0.036455 0.090818 0.694989
-0.041869 0.108443 0.726744
-0.027732 0.094151 0.656495
-0.033660 0.108226 0.618606
-0.123802 0.166515 0.632333
-0.105269 0.130431 0.636602
-0.049567 0.159732 0.673658
-0.088744 0.143256 0.698882
-0.032361 0.204704 0.423123
-0.029470 0.154564 0.359666
-0.049734 0.169735 0.423079
-0.137231 0.229068 -0.092612
-0.218089 0.187463 -0.049229
-0.104615 0.207318 -0.100112
-0.262459 0.148173 0.050009
-0.270685 0.136382 0.051916
-0.272399 0.068446 0.508736
-0.208734 0.046116 0.503780
-0.262161 0.046835 0.525682
-0.084991 -0.397898 0.754436
-0.122967 -0.429450 0.792272
-0.102593 -0.454839 0.710102
-0.131894 -0.406276 0.779956
-0.224234 -0.350059 0.667478
-0.196487 -0.383377 0.647751
-0.146688 -0.417411 0.683173
-0.156890 -0.382837 0.733717
-0.125542 -0.439490 0.727512
-0.240417 -0.166413 0.184562
-0.230664 -0.214242 0.153281
-0.260549 -0.184590 0.157283
-0.279367 -0.153383 0.209904
-0.231453 -0.132006 0.209578
-0.241422 -0.133470 0.218245
-0.285387 -0.148762 0.220378
-0.234698 -0.191422 0.042199
-0.270174 -0.229798 0.048145
-0.129892 -0.402563 0.403347
-0.098082 -0.433823 0.410680
-0.137686 -0.384196 0.381950
-0.148310 -0.421199 0.309848
-0.194145 -0.354391 0.360555
-0.013866 -0.421982 0.150930
-0.030187 -0.423592 0.143490
-0.094387 -0.391636 0.205657
-0.091285 -0.425841 0.088096
-0.028958 -0.422724 0.056922
-0.258905 -0.023579 -0.367406
-0.298216 -0.040196 -0.375912
-0.155147 0.020432 -0.470781
-0.027783 0.036741 -0.494717
0.017148 0.000878 -0.491682
-0.050671 -0.025750 -0.491749
-0.066764 0.000462 -0.500910
-0.126452 0.169503 -0.555795
-0.083618 0.164083 -0.583609
-0.335025 -0.096514 -0.497707
-0.288564 -0.166030 -0.456510
-0.350278 -0.141488 -0.505287
-0.222739 -0.191778 -0.451484
-0.240203 -0.158528 -0.432873
-0.213919 -0.192726 -0.410022
-0.178369 -0.148864 -0.426585
-0.196222 -0.165480 -0.367401
-0.149021 -0.196988 -0.373715
-0.117240 -0.213556 -0.329814
-0.223285 -0.153063 -0.377689
-0.151602 -0.178133 -0.240989
-0.229328 -0.041089 -0.280814
-0.261795 -0.040539 -0.257876
-0.190414 0.244678 -0.429465
-0.162832 0.246156 -0.339348
-0.113128 0.282263 -0.363757
-0.232495 0.197063 -0.289847
-0.229167 0.145185 -0.247253
-0.261039 0.039616 -0.184968
-0.241404 -0.026014 -0.225196
-0.198654 0.005088 -0.176566
-0.197962 -0.003881 -0.133345
-0.053951 -0.347133 -0.130460
-0.007848 -0.295505 -0.156733
0.012963 -0.340040 -0.063254
-0.046754 -0.339422 -0.108288
-0.036608 -0.372425 -0.126900
-0.069367 -0.317108 -0.160997
-0.194540 -0.049655 -0.028683
-0.202178 -0.011465 -0.069324
0.062931 -0.303063 0.914041
-0.000029 -0.021615 0.906640
0.008302 -0.037484 0.888905
0.066208 -0.075781 0.889483
0.023917 -0.059661 0.939937
0.269133 -0.028178 0.767034
0.233164 -0.000698 0.824648
0.240831 -0.061494 0.754025
0.244081 -0.069581 0.787315
0.242112 -0.058829 0.737912
0.240367 -0.021876 0.705813
0.009689 0.118360 0.599500
0.013365 0.116158 0.639682
-0.012081 0.110646 0.647034
0.054724 0.136724 0.666024
-0.025735 0.105482 0.763508
-0.008207 0.084658 0.700652
0.027476 0.079671 0.722473
0.120659 0.077915 0.758318
0.103231 0.087423 0.739420
0.042793 0.094701 0.720729
0.074224 0.144155 0.631915
0.269922 0.192181 0.046059
0.247960 0.215786 0.075554
0.198838 0.242898 0.089860
0.085504 0.125879 0.428252
0.189887 0.121952 0.425139
0.168695 0.114183 0.428905
0.181696 0.089486 0.367416
0.182674 0.077571 0.207390
0.189728 0.083152 0.276485
0.196357 0.056598 0.287126
0.235712 0.036688 0.347362
0.183970 0.031653 0.273852
0.229337 0.032322 0.319708
0.208151 0.041002 0.217230
0.062414 -0.437555 0.751583
0.023237 -0.498330 0.705980
0.061812 -0.491764 0.706685
0.280671 -0.101724 0.218500
0.232400 -0.090609 0.226280
0.250223 -0.068451 0.248107
0.211293 -0.047200 0.373167
0.220173 -0.042483 0.309397
0.251112 -0.190600 0.052030
0.300833 -0.088517 0.014270
0.261372 -0.102783 0.051678
0.282747 -0.112321 0.043807
0.212849 -0.296488 0.001788
0.189034 -0.219098 -0.060657
0.192339 -0.183088 -0.020751
0.190320 -0.279668 0.313475
0.194649 -0.253101 0.353799
0.116928 -0.408230 0.274390
0.140634 -0.426939 0.298218
0.122509 -0.411343 0.215842
0.096641 -0.416067 0.174060
0.135297 -0.401993 0.249425
0.024617 -0.364037 -0.034068
0.012834 -0.378109 -0.002069
-0.017613 -0.408170 -0.049064
0.059057 -0.362452 -0.032607
0.273748 -0.088804 -0.363506
0.316673 -0.060247 -0.348372
0.074286 0.151571 -0.554347
0.041628 0.098079 -0.541776
0.041588 0.124143 -0.562928
0.274315 -0.004197 -0.363391
0.160218 0.179061 -0.563760
0.092212 0.198139 -0.573264
0.102329 -0.113157 -0.525135
0.090554 -0.103884 -0.508615
0.133564 -0.039919 -0.518231
0.157483 -0.070488 -0.523662
0.176387 -0.065822 -0.476656
0.301884 -0.114232 -0.356475
0.304503 -0.166517 -0.341598
0.292982 -0.189623 -0.338937
0.319463 -0.087367 -0.333428
0.257831 -0.097530 -0.319183
0.247842 -0.065372 -0.276586
0.198897 -0.117276 -0.195051
0.208522 -0.132866 -0.224367
0.278345 0.088011 -0.301660
0.297946 0.074923 -0.349593
0.256932 0.178260 -0.407185
0.237276 0.195391 -0.453635
0.204656 0.211364 -0.430854
0.214231 0.254216 -0.395188
0.219835 0.229092 -0.247028
0.125538 0.244835 -0.275230
0.143721 0.205447 -0.245792
0.097332 0.207966 -0.198026
0.160209 0.089379 -0.163393
0.170397 0.114660 -0.166690
0.162352 0.177457 -0.157028
0.107479 -0.326050 -0.137153
0.105227 -0.260178 -0.109187
0.084419 -0.266117 -0.124296
0.156779 -0.293124 -0.064978
0.175639 -0.020889 -0.023131
0.200991 0.048359 -0.039369
0.156829 0.069592 -0.062771
0.179254 0.017793 -0.098840
0.228745 0.018626 -0.137757
0.225333 0.058496 -0.122488
0.171715 0.038779 -0.136128
0.106021 -0.302852 -0.189492
0.104421 -0.231057 -0.253268
0.105790 -0.255491 -0.264556
0.108694 -0.242605 -0.266407
0.085668 -0.252745 -0.259610
0.097789 -0.246813 -0.193401
0.160025 0.226487 -0.308068
0.288913 0.078768 -0.391752
0.299858 0.106742 -0.352601
0.266034 0.154984 -0.379588
0.269548 0.114854 -0.309994
0.109339 -0.223908 -0.369633
0.106387 -0.174411 -0.333817
0.108571 -0.185563 -0.390811
0.411065 -0.167377 -0.336403
0.072960 -0.080941 -0.487610
0.129520 0.204666 -0.521310
-0.026468 0.277401 -0.538819
0.006159 0.255664 -0.537812
-0.005272 0.173931 -0.592729
0.211240 0.042000 -0.405033
0.278799 0.073513 -0.426054
0.027465 0.111215 -0.620748
0.012993 0.179155 -0.582646
0.220785 0.079795 -0.469385
0.162067 0.042330 -0.447780
0.373880 -0.107190 -0.364442
0.072687 -0.422987 0.414042
0.076053 -0.423739 0.355224
-0.000938 -0.434384 0.426701
0.018636 -0.466814 0.305197
0.060674 -0.447434 0.343318
0.186509 -0.421796 0.683171
0.230429 -0.368627 0.624052
0.165719 -0.393358 0.621745
0.162973 -0.456546 0.605519
0.122731 -0.412682 0.520071
0.094523 -0.419832 0.614967
0.134784 -0.446399 0.570175
0.155865 -0.323538 0.144469
0.138819 -0.381215 0.220073
0.182742 -0.309091 0.187049
0.203542 -0.321658 0.126483
0.161962 -0.374970 0.098993
0.172123 -0.280327 0.024227
0.216406 -0.268225 0.048366
0.233921 -0.254999 0.138175
0.212336 -0.282338 0.078744
0.187475 -0.247803 0.148819
0.247127 -0.263950 0.038886
0.227847 -0.261440 0.134699
0.265921 -0.197478 0.131675
0.267136 -0.162915 0.116418
0.258464 -0.101683 0.111970
0.311514 -0.078294 0.119754
0.266479 -0.107011 0.108096
0.182124 -0.418708 0.734841
0.181864 -0.378660 0.768079
0.081821 -0.437849 0.775581
0.172629 -0.413670 0.777611
0.104781 -0.426009 0.784563
0.119283 -0.393792 0.682407
0.115271 -0.458272 0.706747
0.153076 -0.393061 0.718688
0.193409 0.043777 0.413756
0.185479 0.067174 0.343574
0.227042 0.034339 0.388897
0.178311 0.073018 0.356788
0.219431 0.023369 0.445709
0.220144 0.073842 0.447666
0.115208 0.190327 0.229224
0.142846 0.158680 0.287224
0.084509 0.156666 0.320225
0.178999 0.147330 0.356924
0.140526 0.091963 0.276567
0.172239 0.107479 0.294207
0.156111 0.118327 0.249306
0.118315 0.178964 -0.077809
0.125484 0.171457 -0.081564
0.042455 0.188918 0.257008
0.060948 0.194457 0.286476
0.023997 0.187307 0.291245
0.097188 0.188598 0.278090
0.096511 0.151019 0.332254
0.086811 0.179792 0.272220
0.056222 0.193270 0.248014
0.201137 0.050301 0.747295
0.272956 0.013573 0.727156
0.178508 0.065764 0.759552
0.218492 0.010708 0.783171
0.179159 0.058068 0.815213
0.179343 0.044908 0.792134
0.113587 -0.004553 0.850557
0.175999 0.031660 0.863353
0.193210 -0.001426 0.831539
0.229588 -0.020234 0.865479
0.161633 -0.044720 0.889553
0.304821 -0.285031 0.724430
0.280690 -0.315827 0.670571
0.255842 -0.251861 0.699230
0.231629 -0.251887 0.804283
0.226669 -0.313511 0.789203
0.216319 -0.288276 0.721497
0.196429 -0.339893 0.783200
0.194353 -0.383089 0.651377
0.194073 -0.350998 0.718877
-0.106506 -0.311985 -0.185453
-0.108870 -0.276412 -0.125053
-0.094331 -0.322278 -0.088097
-0.128097 -0.262198 -0.065517
-0.103468 -0.284584 -0.102811
-0.138768 -0.255766 -0.147308
-0.115688 -0.303066 -0.108350
-0.154701 0.130720 -0.165318
-0.171798 0.169261 -0.218886
-0.155819 0.160674 -0.178977
-0.191269 0.181231 -0.152133
-0.250000 0.177966 -0.284448
-0.215037 0.218410 -0.236589
-0.153067 0.185391 -0.191578
-0.166894 0.253684 -0.213425
-0.188705 0.172549 -0.504588
-0.224194 0.230559 -0.462162
-0.240004 0.244743 -0.403150
-0.292938 0.050922 -0.326561
-0.296738 0.036504 -0.333483
-0.246556 0.112182 -0.323778
-0.250244 0.107029 -0.291804
-0.301307 -0.104483 -0.262292
-0.271761 -0.174375 -0.335675
-0.362546 -0.145814 -0.355101
-0.125143 -0.030581 -0.523254
-0.069873 -0.076383 -0.473582
-0.117647 -0.109990 -0.498838
-0.165007 -0.058544 -0.466111
-0.156624 0.177943 -0.559217
-0.129500 0.167940 -0.566776
-0.241302 -0.005361 -0.404508
-0.274963 0.019718 -0.377673
-0.074310 0.182624 -0.603880
-0.341637 -0.063754 -0.341955
-0.343155 -0.105359 -0.399432
-0.053284 -0.380313 0.049735
-0.078491 -0.373704 0.012293
-0.069063 -0.375859 -0.084793
-0.035732 -0.413217 -0.054933
-0.002986 -0.374523 -0.034259
-0.113466 -0.399855 0.321930
-0.105950 -0.397215 0.289874
-0.126209 -0.396270 0.232930
-0.117445 -0.384130 0.275797
-0.066838 -0.427580 0.223590
-0.089202 -0.423397 0.209815
-0.174531 -0.360220 0.292921
-0.175024 -0.310551 0.388395
-0.165638 -0.373268 0.316462
-0.181296 -0.378610 0.394238
-0.136933 -0.335341 -0.021538
-0.268810 -0.151903 -0.024283
-0.245927 -0.176626 0.027536
-0.305076 -0.057176 0.023259
-0.301221 -0.113663 0.020771
-0.289476 -0.079066 0.038785
-0.228040 0.024701 0.243673
-0.217895 0.001289 0.259584
-0.275205 -0.081522 0.239180
-0.265211 -0.009668 0.220540
-0.274124 -0.108472 0.382462
-0.228680 -0.086157 0.329313
-0.222644 -0.038605 0.283532
-0.212076 -0.005857 0.324846
-0.205913 0.021344 0.320829
-0.032237 -0.479608 0.751857
-0.026373 -0.416513 0.780174
-0.037949 -0.459795 0.712492
-0.148599 0.111973 0.318253
-0.222413 0.052732 0.347686
-0.168777 0.084458 0.207846
-0.163750 0.115970 0.251162
-0.214518 0.061759 0.244475
-0.214128 0.080371 0.245296
-0.247821 0.062170 0.303690
-0.188869 0.031109 0.276975
-0.125067 0.127170 0.443816
-0.127233 0.180081 0.398644
-0.174124 0.147821 0.393816
-0.214334 0.150637 -0.037670
-0.022976 0.207289 0.342808
-0.028524 0.163992 0.373625
-0.002884 0.176998 0.274641
0.013701 0.212150 0.236120
-0.121195 0.181094 0.238956
-0.056794 0.154767 0.238477
-0.087390 0.159326 0.243259
-0.058049 0.169125 0.275378
-0.223664 0.197380 0.382920
-0.272852 0.022555 0.708108
-0.157538 0.042672 0.762818
-0.156523 0.102988 0.768470
-0.163448 0.044986 0.782862
-0.174689 0.004378 0.799713
-0.161193 0.080891 0.799431
-0.191996 -0.022969 0.863007
-0.158116 -0.010965 0.838717
-0.180174 0.029819 0.798713
-0.131523 0.004563 0.851100
-0.140497 -0.001519 0.856272
0.012530 -0.375404 0.904425
-0.261093 -0.237534 0.788659
-0.276353 -0.223143 0.828539
-0.277460 -0.254404 0.731835
-0.249919 -0.241044 0.690558
-0.255318 -0.305746 0.661160
-0.197162 -0.333907 0.680156
-0.275624 -0.333358 0.694656
-0.236469 -0.327761 0.753350
-0.174594 -0.359626 0.813581
-0.184719 0.178827 0.614675
-0.135224 0.215016 0.585334
-0.135184 0.239623 0.521048
-0.171901 0.238172 0.586726
-0.175372 -0.295812 0.909085
-0.158764 -0.264344 0.913949
-0.191649 -0.300467 0.853054
-0.174264 -0.293906 0.918873
-0.209900 -0.258364 0.796860
-0.235644 -0.286031 0.868520
-0.218942 -0.255078 0.819687
-0.191698 -0.258513 0.794191
-0.178865 0.097504 0.705024
-0.207071 0.083068 0.726646
-0.199220 0.132106 0.690431
-0.239165 0.109345 0.712904
-0.162864 0.120660 0.748906
-0.141106 0.190004 0.483422
-0.090476 0.205775 0.531290
-0.095743 0.206942 0.459449
-0.023560 0.213420 0.063003
-0.109556 0.220750 -0.030244
-0.041314 0.189804 0.071272
-0.263982 0.100093 -0.051846
-0.320336 0.180903 0.464909
-0.299797 0.119064 0.495820
-0.285314 0.102735 0.525073
-0.250801 0.072728 0.704970
-0.308743 0.029347 0.637410
-0.231338 -0.003831 0.213689
-0.298359 -0.011106 0.138366
-0.284128 -0.009491 0.156471
-0.225996 -0.219842 0.235678
-0.257572 -0.172799 0.257022
-0.213492 -0.238253 0.298989
-0.276251 -0.148409 0.330196
-0.280460 -0.080670 0.295254
-0.243106 -0.108778 0.315882
-0.229766 -0.123849 0.309929
-0.280615 -0.229945 0.110170
-0.247373 -0.307589 0.518505
-0.235766 -0.272948 0.542445
-0.219109 -0.322734 0.567817
-0.212448 -0.381534 0.557667
-0.252958 -0.337223 0.553206
-0.264807 -0.372234 0.636742
-0.222645 -0.321447 0.578253
-0.248368 -0.361921 0.566199
-0.280175 -0.301635 0.675746
-0.004959 -0.450862 0.493578
-0.088556 -0.456256 0.556504
-0.076640 -0.478660 0.498236
-0.032644 -0.459265 0.459804
-0.004346 -0.449642 0.451842
-0.342322 -0.071294 -0.371137
-0.219969 -0.074572 -0.399903
-0.111850 0.056386 -0.486657
-0.115245 0.079518 -0.518924
-0.125470 0.003197 -0.541924
-0.026731 0.249792 -0.611487
-0.065765 0.272813 -0.533665
-0.132035 0.269197 -0.461908
-0.208866 -0.147499 -0.475200
-0.133792 -0.135691 -0.436687
-0.248206 -0.138017 -0.451539
-0.307279 -0.085770 -0.300894
-0.373642 -0.080716 -0.355954
-0.177241 -0.208739 -0.315757
-0.159756 -0.176660 -0.256353
-0.220994 -0.149947 -0.245180
-0.235779 -0.119359 -0.283313
-0.170638 0.212691 -0.461288
-0.105647 0.250813 -0.303989
-0.027779 0.280842 -0.220359
0.016060 0.280223 -0.268487
-0.005675 0.264636 -0.278830
-0.002888 0.240136 -0.272958
-0.212271 -0.069542 -0.195801
-0.182198 -0.082799 -0.178492
-0.200068 -0.121825 -0.142616
-0.193306 -0.065213 -0.156630
-0.154213 0.188040 -0.114538
-0.082096 0.207250 -0.123273
-0.152426 0.220520 -0.190121
-0.169051 0.185708 -0.121702
-0.131689 0.180263 -0.125866
0.107438 0.185060 0.568020
0.166935 0.166098 0.576759
0.201032 0.250172 0.556951
0.127632 0.204861 0.539722
0.100691 -0.255076 0.916626
0.162383 -0.266743 0.886690
0.172661 -0.239380 0.889760
0.123924 -0.227242 0.953406
0.207666 -0.163444 0.912159
0.188727 -0.237583 0.862263
0.152874 -0.213312 0.868010
0.139695 -0.292251 0.891991
0.214116 -0.331343 0.779256
0.178750 -0.282494 0.830447
0.183293 -0.256763 0.827718
0.155453 0.101741 0.723681
0.178178 0.053364 0.759517
0.193627 0.106643 0.754123
0.128349 0.154086 0.534290
0.087120 0.153915 0.523154
0.144221 0.170900 0.510291
0.140088 0.185517 0.498882
0.105828 0.181203 0.476689
0.137548 0.204182 0.432794
0.167876 0.180002 0.389142
0.009985 0.187747 -0.007922
0.003756 0.191433 -0.016844
0.062172 0.178100 0.001804
0.071235 0.168791 0.061191
0.071534 0.184186 0.081716
0.115592 0.184498 0.008722
0.169396 0.125982 -0.069989
0.177722 0.054944 -0.007542
0.245816 0.078659 -0.018252
0.276587 0.051117 -0.016563
0.297025 0.188658 0.568940
0.333381 0.162900 0.473966
0.314970 0.203331 0.503444
0.266134 -0.078180 0.540946
0.271770 -0.064820 0.574074
0.292996 -0.072260 0.515701
0.249808 0.017349 0.565770
0.265975 -0.013222 0.592518
0.268151 -0.017068 0.566591
0.319115 -0.029891 0.568258
0.281502 -0.043769 0.584938
0.289631 -0.028678 0.630891
0.268451 -0.161374 0.008405
0.206678 -0.171288 -0.001556
0.248276 -0.242906 0.338692
0.277227 -0.160852 0.385404
0.271386 -0.151896 0.380046
0.265346 -0.111455 0.424786
0.144704 -0.370039 0.303747
0.166596 -0.335499 0.321011
0.165990 -0.334231 0.224424
0.206988 -0.321713 0.292409
0.222769 -0.256325 0.230569
0.253983 -0.226915 0.220831
0.174294 -0.309897 0.231230
0.237819 -0.290565 0.290329
0.122815 -0.408456 0.147178
0.131572 -0.368846 0.119718
0.100828 -0.402619 0.067319
0.097089 -0.400330 0.065912
0.143872 -0.362234 0.090187
0.398206 -0.104844 -0.465742
0.340507 -0.131221 -0.431379
0.358904 -0.133141 -0.441897
0.345218 -0.100001 -0.422580
0.306042 -0.089826 -0.447736
0.258617 -0.101900 -0.504276
0.034496 0.105551 -0.503173
-0.013749 -0.108362 -0.482263
0.015436 -0.016428 -0.540215
0.060506 0.034166 -0.542472
0.034120 -0.052720 -0.492398
0.265340 0.165394 -0.484384
0.072036 0.181748 -0.615649
0.381801 -0.122779 -0.424978
0.286029 -0.183698 -0.358891
0.300990 -0.148757 -0.289615
0.156505 -0.233578 -0.293476
0.139008 -0.187032 -0.217414
0.120877 -0.234038 -0.201096
0.206726 -0.075702 -0.224593
0.265674 -0.035426 -0.205513
0.173044 0.209955 -0.363147
0.146455 0.264972 -0.387551
0.081118 0.287725 -0.372105
0.107512 0.254154 -0.399767
0.110059 0.233013 -0.403034
0.235378 0.175049 -0.292107
0.282265 0.155726 -0.306303
0.255655 0.225896 -0.336696
0.204983 0.165045 -0.246269
0.236646 0.007302 -0.164647
0.190955 0.064040 -0.146156
0.234668 0.070854 -0.189002
0.040018 -0.381813 -0.116978
-0.021082 -0.316468 -0.119171
0.086269 -0.314230 -0.173229
0.009957 -0.358607 -0.175078
0.071750 -0.319034 -0.127922
0.025433 -0.320746 -0.117715
0.182171 -0.061130 -0.043837
0.072200 0.198983 -0.089404
0.145975 0.192085 -0.132434
0.171679 0.182389 -0.098238
0.160961 0.138648 -0.103801
0.182552 0.158426 -0.087043
0.179345 -0.084988 -0.182628
0.191384 -0.051683 -0.145104
0.225208 -0.079124 -0.150813
0.129937 0.278629 -0.293923
0.093321 0.257699 -0.276358
0.076756 0.267767 -0.280320
0.008699 0.254358 -0.245153
0.090867 0.248065 -0.470453
0.215150 -0.151353 -0.266015
0.151446 -0.188594 -0.229252
0.204509 -0.195865 -0.266771
0.373181 -0.109179 -0.372506
0.200842 -0.160290 -0.478245
0.203148 -0.147791 -0.457377
0.150060 -0.185663 -0.404951
0.087167 0.264628 -0.550494
0.043752 0.255958 -0.605918
0.077906 -0.052262 -0.490497
0.216276 -0.065310 -0.394752
0.090317 -0.468423 0.562886
0.028590 -0.471746 0.499699
-0.004226 -0.495261 0.454037
0.028020 -0.438695 0.423565
0.021833 -0.486225 0.478651
0.227570 -0.412734 0.564726
0.187517 -0.398150 0.567866
0.208871 -0.374616 0.553725
0.229561 -0.304352 0.537155
0.223449 -0.337453 0.552896
0.310481 -0.290065 0.614833
0.300124 -0.273968 0.678122
0.239390 -0.332228 0.612810
0.242873 -0.326024 0.597474
0.257605 -0.292867 0.640546
0.231984 -0.222244 0.136513
0.223980 -0.263236 0.104148
0.243497 -0.269640 0.306256
0.263074 -0.256553 0.278201
0.247153 -0.216490 0.346377
0.221131 -0.257218 0.286569
0.270653 -0.177066 0.295010
0.218656 -0.196460 0.255031
0.238975 -0.104715 0.286878
0.273611 -0.119581 0.348518
0.272033 0.040782 0.144823
0.232334 -0.010023 0.241645
0.240913 -0.018115 0.154835
0.260861 0.003407 0.223636
0.255678 0.082504 0.656531
0.310857 0.096746 0.489368
0.274293 0.159285 0.513207
0.279373 0.133564 0.525397
0.272363 0.117015 0.498493
0.262746 0.116742 0.027515
0.320838 0.212610 -0.023033
0.020035 0.185554 0.157361
0.068061 0.218679 0.108543
0.000732 0.172845 0.199588
0.095648 0.213071 0.204202
0.091417 0.164889 0.148333
0.114724 0.163222 0.118527
0.253601 0.155278 0.638174
0.291192 0.143197 0.628553
0.253462 0.145972 0.636810
0.285164 0.145850 0.708962
0.201132 -0.103794 0.868013
0.237925 -0.105872 0.866621
0.250094 -0.131073 0.871311
0.226613 -0.167729 0.850069
0.279182 -0.235331 0.798795
0.209982 -0.189233 0.874507
0.262006 -0.189631 0.857307
0.260138 -0.187225 0.772721
0.245915 -0.096686 0.813411
0.044281 -0.396189 0.918817
0.036066 -0.384961 0.938427
0.175114 0.239386 -0.497082
0.128186 0.196884 -0.487631
-0.127053 -0.243470 -0.083424
-0.156539 -0.286666 -0.074245
-0.223888 0.025079 -0.110852
-0.220273 0.023741 -0.103447
-0.157792 0.085821 -0.143470
-0.177045 0.028207 -0.088011
-0.172759 0.046030 -0.088090
-0.099762 -0.248020 -0.341040
-0.094245 -0.244225 -0.278363
-0.077148 -0.286156 -0.232369
-0.136085 -0.289377 -0.174249
-0.094817 -0.226165 -0.224016
-0.127854 -0.221831 -0.217439
-0.186585 0.261921 -0.380805
-0.213349 0.240684 -0.335845
-0.141024 0.273096 -0.308845
-0.164740 0.263897 -0.297128
-0.126439 0.238137 -0.302855
-0.249832 0.135095 -0.356053
-0.279646 0.165036 -0.346091
-0.103610 -0.219158 -0.368068
-0.140066 -0.163103 -0.418555
-0.302191 -0.159790 -0.446681
-0.321637 -0.129484 -0.493155
-0.233305 -0.186124 -0.484576
-0.301685 -0.196807 -0.359630
-0.252978 -0.179403 -0.443380
-0.363975 -0.135826 -0.415122
-0.003144 -0.112551 -0.471550
-0.010214 0.243810 -0.475979
-0.021740 0.240261 -0.532214
-0.057896 0.284279 -0.482858
-0.067877 0.243743 -0.425736
0.002866 0.205400 -0.633572
-0.158258 0.158855 -0.533840
-0.134640 0.128989 -0.480264
-0.219356 0.051510 -0.478980
-0.187777 -0.007605 -0.418213
-0.205359 0.028738 -0.396321
-0.248428 -0.088857 -0.516234
-0.206506 -0.066062 -0.475469
-0.429596 -0.123417 -0.368046
-0.366722 -0.058384 -0.347798
-0.405929 -0.141541 -0.327609
-0.040426 -0.452014 0.653454
-0.078003 -0.497246 0.638895
-0.043528 -0.443474 0.577930
-0.090341 -0.481746 0.577723
-0.244546 -0.352486 0.468634
-0.203537 -0.354843 0.390008
-0.190670 -0.377868 0.468132
-0.202009 -0.339642 0.487083
-0.232274 -0.256872 0.462933
-0.261510 -0.278252 0.434909
-0.210992 -0.297689 0.418809
-0.308511 -0.224518 0.510268
-0.264856 -0.272671 0.550589
-0.266189 -0.255320 0.615212
-0.318571 -0.175367 0.644093
-0.332265 -0.208440 0.571094
-0.281226 -0.133096 0.572969
-0.306646 -0.151592 0.559803
-0.270907 -0.123490 0.542265
-0.246615 -0.066458 -0.060678
-0.219253 -0.016292 -0.045220
-0.307382 -0.007239 0.558914
-0.309182 -0.066927 0.545202
-0.317512 -0.065652 0.570898
-0.291073 -0.082368 0.503889
-0.288359 -0.139259 0.648638
-0.285025 -0.044394 0.642464
-0.293754 -0.034648 0.571839
-0.287893 -0.036611 0.646554
-0.326566 0.177299 0.485760
-0.325650 0.209685 0.494278
-0.266557 0.128877 0.569961
-0.262408 0.047941 0.142713
-0.296819 0.088517 0.171212
-0.233439 0.022648 0.150141
-0.254351 0.115252 0.152364
-0.199823 0.074087 0.231506
-0.289814 0.131441 0.121533
-0.177838 0.169735 0.413708
-0.107592 0.174766 -0.070535
-0.136816 0.161575 0.201872
-0.147434 0.156339 0.147769
-0.081906 0.162437 0.121022
-0.109157 0.167670 0.150107
-0.040208 0.153708 0.570092
-0.035631 0.133128 0.549866
-0.052891 0.184069 0.592000
-0.239372 0.149848 0.638250
-0.254671 0.115803 0.702355
-0.040148 0.020757 0.848628
-0.009983 0.004563 0.845377
-0.055689 0.024045 0.822036
-0.033880 0.029994 0.802383
-0.131938 0.065017 0.774960
-0.101551 0.075745 0.781717
-0.090357 0.028235 0.832143
-0.117569 0.001831 0.800735
-0.070077 0.010673 0.842204
-0.103464 -0.007321 0.838683
-0.032246 -0.449051 0.839195
-0.017995 -0.405257 0.812374
-0.082552 -0.393816 0.836582
-0.058029 -0.341682 0.901059
-0.046430 -0.366279 0.897644
0.013669 -0.315433 0.968656
-0.018474 -0.286045 0.948845
-0.038386 -0.360714 0.921673
-0.060083 -0.289634 0.928511
-0.158063 -0.177733 0.925606
-0.207475 -0.215411 0.840524
-0.245345 -0.103718 0.872063
-0.288146 -0.083148 0.826119
-0.288848 -0.111109 0.814906
-0.273113 -0.192913 0.770856
-0.225604 0.211176 0.601084
-0.020226 0.200096 0.453845
-0.011431 0.162018 0.526205
-0.213175 0.149873 0.367701
-0.298193 0.192442 0.036707
-0.218346 0.196062 -0.030280
-0.129387 0.100402 -0.086324
-0.079693 0.130695 0.307081
-0.154955 0.140702 0.325502
-0.112230 0.179930 0.267675
-0.136171 0.111287 0.256044
-0.144678 0.119788 0.230988
-0.171557 0.161423 0.262108
-0.204525 0.069525 0.361290
-0.196073 0.125603 0.414154
-0.215779 0.051593 0.368741
-0.228119 0.080458 0.387615
-0.216315 0.018851 0.454172
-0.217098 0.026690 0.391854
-0.219291 0.081428 0.441241
-0.262436 0.117058 0.508674
-0.252987 0.075295 0.525797
-0.274361 0.022157 0.500995
-0.310612 0.034180 0.563913
-0.312315 0.076666 0.630020
-0.279790 0.049737 0.558186
-0.204083 -0.019177 0.361559
-0.210784 -0.025551 0.381662
-0.211073 -0.019053 0.360075
-0.268556 -0.039239 0.345809
-0.220474 -0.068060 0.402711
-0.235378 -0.006469 0.426451
-0.285435 -0.162692 0.076216
-0.288802 -0.173932 0.091093
-0.284302 -0.201207 0.141023
-0.294723 -0.110654 0.144570
-0.269409 -0.154215 0.117383
-0.236662 -0.242765 0.038323
-0.254183 -0.257702 0.062142
-0.221515 -0.284097 0.016102
-0.139963 -0.311811 0.016307
-0.200872 -0.287991 0.136322
-0.181662 -0.375566 0.139732
-0.149445 -0.359492 0.128422
-0.138037 -0.328085 0.190402
-0.154743 -0.347158 0.087148
-0.227488 -0.321398 0.108530
-0.243807 -0.273756 0.110238
-0.216002 -0.294647 0.194001
-0.234053 -0.297742 0.171739
-0.198299 -0.272816 0.212967
-0.239302 -0.271444 0.183861
-0.122487 -0.479637 0.617477
-0.140684 -0.461583 0.692591
-0.165872 -0.390371 0.590556
-0.171937 -0.386615 0.622177
-0.187237 -0.415568 0.635516
-0.239844 -0.402426 0.585131
-0.178409 -0.417353 0.518789
-0.183599 -0.407470 0.571604
-0.200568 -0.418485 0.563422
-0.100688 -0.434001 0.591450
-0.032541 -0.483200 0.378492
-0.053564 -0.432127 0.428263
-0.049963 -0.430416 0.442493
-0.033425 -0.428685 0.401403
-0.073489 -0.459124 0.317548
-0.046896 -0.455999 0.337080
-0.031638 -0.468378 0.374918
-0.395424 -0.122321 -0.415402
-0.301520 -0.073035 -0.324751
-0.162316 0.068452 -0.489621
-0.077999 0.108589 -0.548537
-0.019632 0.085322 -0.581680
-0.035938 0.166895 -0.619640
-0.236074 0.046683 -0.425834
-0.048273 0.280437 -0.562355
-0.033270 -0.093370 -0.479142
-0.218872 -0.087250 -0.258735
-0.285328 -0.134879 -0.323130
