0.172203 0.278530 -0.396891
0.268345 0.209475 -0.311993
0.222887 0.122185 -0.144601
0.073895 -0.356552 -0.050151
0.026212 -0.296376 -0.167861
0.135333 0.214308 -0.114419
0.242569 -0.019512 -0.142888
0.091830 0.264556 -0.256481
0.067171 0.282540 -0.227763
0.109598 0.270168 -0.287943
0.234870 -0.126707 -0.255543
0.371877 -0.132077 -0.340952
0.175928 0.009803 -0.478738
0.351547 -0.087924 -0.380541
0.100277 -0.433743 0.493414
0.116780 -0.447332 0.462540
0.252535 -0.354995 0.626963
0.267978 -0.319119 0.632194
0.239549 -0.338934 0.647792
0.298401 -0.254303 0.567724
0.301344 -0.242284 0.616074
0.288893 -0.275627 0.572366
0.265868 -0.195425 0.116707
0.271782 -0.152790 0.343457
0.257485 -0.118490 0.333031
0.299045 0.069202 0.664213
0.298620 0.132378 0.531561
0.306262 0.177063 -0.010492
0.310824 0.215018 0.053925
0.077331 0.221474 0.144964
0.256737 0.190825 0.637726
0.276612 -0.067989 0.835386
0.278136 -0.123286 0.848978
0.223754 -0.153960 0.909266
0.220495 -0.165080 0.891358
0.055744 -0.321184 0.943979
-0.170807 -0.191741 -0.074251
-0.171569 0.046580 -0.083749
-0.155242 0.104035 -0.067942
-0.055087 -0.285487 -0.181839
-0.166195 0.271723 -0.334833
-0.314401 -0.137963 -0.393590
-0.261161 -0.146269 -0.419385
0.011662 0.287719 -0.430902
-0.145540 0.174220 -0.485898
-0.221221 -0.018678 -0.399148
-0.422832 -0.123962 -0.341185
0.024904 -0.457840 0.599433
-0.066306 -0.453986 0.651604
-0.197061 -0.284708 0.448021
-0.231728 -0.299785 0.530992
-0.199832 -0.317516 0.501206
-0.279450 -0.159436 0.546576
-0.293870 -0.181821 0.647991
-0.294626 -0.182261 0.603156
-0.268101 -0.234546 0.653122
-0.203197 -0.144505 -0.011025
-0.266782 0.011697 0.610467
-0.280393 0.022694 0.596240
-0.282441 -0.089013 0.570396
-0.233521 0.072789 0.209920
-0.168214 0.113516 0.455805
-0.155672 0.152226 0.217053
-0.033372 0.173940 0.577815
-0.247579 0.128145 0.672956
-0.066667 -0.004590 0.896138
-0.054616 0.020160 0.885915
-0.038043 0.051314 0.820147
-0.005511 0.072873 0.788615
-0.024736 -0.399732 0.838824
-0.008665 -0.401421 0.875994
-0.077781 -0.292294 0.916698
-0.223558 -0.205793 0.853560
-0.215969 -0.125120 0.844001
-0.197836 0.207617 0.679184
-0.072187 0.198262 0.540960
-0.203098 0.241984 0.137162
-0.292390 0.215224 0.040726
-0.264754 0.190588 -0.022624
-0.134025 0.133300 0.356798
-0.200092 0.076836 0.400215
-0.256279 0.049640 0.572384
-0.210270 0.022641 0.463466
-0.222688 -0.082666 0.390569
-0.235856 -0.099435 0.395591
-0.282374 -0.124929 0.131457
-0.248992 -0.141089 0.151367
-0.202387 -0.252613 0.115802
-0.137425 -0.309714 0.088476
-0.200718 -0.257855 0.199116
-0.109142 -0.415505 0.624029
-0.103762 -0.440396 0.583814
-0.179556 -0.381326 0.634330
-0.001739 -0.422311 0.370102
-0.051470 -0.430776 0.369406
-0.091986 -0.420628 0.443752
-0.387562 -0.093262 -0.352035
-0.002110 0.167429 -0.577801
-0.231122 0.100976 -0.406302
-0.233749 0.087913 -0.373129
-0.003253 0.221025 -0.591016
-0.057730 -0.077976 -0.473918
-0.136366 -0.205496 -0.109069
-0.248684 0.053173 -0.303065
-0.216336 0.214873 -0.381469
-0.240730 0.183848 -0.384381
-0.038389 0.269938 -0.186725
-0.003012 0.252554 -0.202101
0.028369 0.256431 -0.213148
-0.010139 0.252272 -0.190520
-0.152302 -0.241819 -0.034632
0.032269 -0.094423 0.956468
0.081598 -0.118110 0.941896
0.230355 0.152713 0.708654
0.076137 0.192070 0.483663
0.048373 0.178514 0.570851
0.049140 0.184133 0.539099
0.147024 0.173148 0.171123
0.242868 0.214960 -0.060997
0.230422 0.197877 0.155532
0.315686 -0.124053 0.749067
0.314957 -0.204604 0.736679
0.302104 -0.207541 0.746184
0.274286 -0.214503 0.774115
0.252296 0.068578 0.002405
0.269751 -0.055340 0.198345
0.213050 -0.245868 0.051324
0.308568 0.010858 -0.321835
0.023812 0.113704 -0.547043
0.140339 0.242452 -0.537896
0.176284 -0.158453 -0.311430
0.221019 -0.169645 -0.306603
0.063794 -0.223571 -0.340714
0.048060 -0.168745 -0.426028
0.053612 0.273735 -0.300832
0.083197 0.272381 -0.384687
0.169771 0.218392 -0.180572
0.198615 0.183072 -0.172751
0.192630 -0.203538 -0.088330
0.052678 0.248291 -0.166075
0.120348 0.251551 -0.174760
0.201250 -0.153082 -0.173276
0.198753 -0.155892 -0.135679
0.317713 -0.142489 -0.395113
0.066167 0.267841 -0.451596
0.150544 0.113575 -0.479455
0.078049 -0.450256 0.629808
0.099314 -0.452726 0.601508
0.272157 -0.292520 0.519009
0.211463 -0.305101 0.435705
0.312323 -0.138294 0.634730
0.332521 -0.171681 0.658218
0.303026 -0.185825 0.569990
0.313533 -0.208250 0.539318
0.277271 -0.098576 0.425285
0.248356 -0.043685 0.409127
0.249645 0.024673 0.393685
0.285933 0.050045 0.582462
0.301333 0.107280 0.528425
0.244478 0.076526 0.235677
0.232055 0.104970 0.235667
0.279226 0.076321 0.205228
0.240718 0.163661 0.427609
0.201599 0.170264 0.195224
0.224076 0.191104 0.180517
0.125578 0.169851 0.658706
0.276917 0.267697 0.597567
0.115809 -0.352592 0.890181
0.114939 -0.313049 0.897292
0.112710 -0.365595 0.849285
0.126050 -0.389552 0.804179
0.148230 -0.368836 0.805273
-0.165048 -0.106657 -0.125179
-0.196062 -0.036891 -0.074430
-0.017872 -0.229993 -0.299554
-0.007871 -0.288558 -0.191793
-0.219686 0.217966 -0.354679
-0.082585 0.263624 -0.395610
-0.151399 -0.147147 -0.181576
-0.255215 -0.026620 -0.269897
-0.371986 -0.057642 -0.306100
-0.055096 0.242100 -0.556398
-0.145076 0.219909 -0.488780
-0.002553 0.104802 -0.517282
-0.316558 -0.012184 -0.318096
-0.242040 -0.001832 -0.365354
-0.419918 -0.104272 -0.392227
-0.114219 -0.333768 0.012576
-0.065503 -0.337940 -0.004913
-0.186211 -0.181023 -0.028848
-0.207959 0.017794 -0.005897
-0.253158 -0.208730 0.746216
-0.275528 -0.226149 0.704316
-0.267430 -0.127277 0.743543
-0.280129 -0.092110 0.768723
-0.284258 -0.123219 0.739045
-0.202641 0.112689 0.481467
-0.216999 0.161167 0.193563
-0.281789 0.191346 0.092205
-0.139194 0.174888 0.425957
-0.141346 0.169008 0.703926
-0.112942 -0.357280 0.828297
-0.050951 -0.318135 0.954102
0.016860 -0.206850 0.968731
-0.003621 -0.157405 0.952828
-0.077044 -0.167221 0.957545
-0.050747 -0.151186 0.971785
-0.047969 -0.179756 0.976196
-0.126091 -0.043963 0.918423
-0.133104 -0.074241 0.917169
-0.156991 -0.051206 0.908076
-0.151066 -0.158546 0.938189
-0.174859 -0.121671 0.907371
-0.152809 -0.133407 0.945165
-0.115032 -0.156250 0.944067
-0.254442 0.237130 0.571248
-0.253029 0.231996 0.595675
-0.250847 0.169535 0.619963
-0.261702 0.186666 0.414841
-0.131664 0.180341 0.439015
-0.070371 0.224382 0.055489
-0.104257 0.213742 0.039782
-0.125939 0.241982 0.081897
-0.244867 0.170435 0.434232
-0.240375 0.150606 0.447012
-0.252383 0.087097 0.032196
-0.260761 0.088583 0.101217
-0.259833 0.122787 0.120991
-0.285140 0.107609 0.610442
-0.276708 0.136870 0.628365
-0.261625 0.073786 0.645343
-0.255097 0.088648 0.669076
-0.220694 0.025501 0.506346
-0.238780 -0.010372 0.505394
-0.245714 -0.050528 0.458868
-0.261568 -0.090330 0.523778
-0.258569 -0.039889 0.540406
-0.253455 -0.130316 0.492745
-0.244255 -0.070347 0.488066
-0.256710 -0.041927 0.511377
-0.254334 0.006540 0.536532
-0.243603 -0.033772 0.526051
-0.273171 -0.018781 0.135048
-0.260958 -0.037441 0.147154
-0.268705 -0.058529 0.181551
-0.259589 -0.120173 0.441371
-0.233096 -0.158880 0.434666
-0.216887 -0.199874 0.434338
-0.243685 -0.195210 0.458793
-0.253518 -0.210722 0.505475
-0.257704 -0.213764 0.488771
-0.279474 -0.134310 0.502384
-0.263603 -0.171892 0.509430
-0.208163 -0.182692 0.011376
-0.095267 -0.428266 0.550899
-0.102108 -0.411916 0.508677
-0.131667 -0.400756 0.548838
-0.149472 -0.396197 0.500493
-0.136666 -0.381644 0.460578
0.019845 -0.432816 0.303891
-0.016159 -0.411239 0.305282
-0.032862 -0.416803 0.229820
-0.014162 -0.414634 0.258816
-0.299969 -0.073997 -0.421452
-0.270112 -0.087699 -0.440916
-0.069599 0.097638 -0.473007
-0.084593 0.131190 -0.508712
-0.151906 -0.008668 -0.470925
-0.187707 -0.001717 -0.419072
-0.182874 -0.060479 -0.406223
-0.175819 0.129543 -0.457544
-0.123061 0.231663 -0.522568
-0.420687 -0.146021 -0.374503
-0.406082 -0.131776 -0.376379
-0.184589 -0.144295 -0.293167
-0.169703 -0.154894 -0.312870
-0.006777 -0.180253 -0.405522
0.010647 -0.188801 -0.369665
-0.048660 -0.211789 -0.343485
-0.058482 -0.151508 -0.415291
-0.043743 0.268764 -0.380095
-0.082897 0.288434 -0.356127
-0.044233 0.292721 -0.302044
-0.007775 0.288332 -0.326862
-0.228661 0.116314 -0.186733
-0.224907 0.134767 -0.219574
-0.240062 0.127484 -0.276287
-0.199791 0.140578 -0.164399
-0.171980 0.124137 -0.142273
-0.036882 0.213865 -0.018516
-0.011207 0.237202 -0.055316
0.005026 0.243862 -0.069546
0.044857 -0.128250 0.942093
0.052790 -0.187449 0.954326
0.017589 -0.183072 0.973095
0.074587 -0.236295 0.960018
0.067559 -0.184383 0.965754
0.200092 -0.062391 0.882069
0.233473 -0.045465 0.863130
0.186932 -0.100965 0.928118
0.169252 -0.057266 0.914130
0.149154 -0.131823 0.954737
0.189532 -0.124826 0.937847
0.300828 0.245904 0.583160
0.280171 0.206627 0.611752
0.321979 0.191563 0.413122
0.153871 0.191457 0.445714
0.114101 0.196228 0.015440
0.118840 0.206640 -0.024725
0.145628 0.237523 0.074010
0.148410 0.237857 0.045247
0.224038 0.216395 -0.054060
0.160491 0.174048 -0.028545
0.299355 0.168367 -0.007156
0.305603 0.191380 0.029224
0.299045 0.132641 0.132526
0.290710 0.139419 0.094526
0.277221 0.131129 0.034856
0.253297 0.061654 0.508685
0.252859 0.093046 0.490474
0.275119 0.078673 0.548401
0.316705 -0.075413 0.765879
0.295556 -0.052898 0.742282
0.300321 -0.034357 0.719403
0.309995 -0.075407 0.717971
0.312983 -0.087118 0.671987
0.316437 0.019654 0.647492
0.293522 0.034175 0.667781
0.298094 0.032217 0.720431
0.309587 -0.055469 0.097025
0.315740 -0.044141 0.126327
0.293878 -0.041427 0.096461
0.290453 -0.034602 0.060542
0.271130 0.062071 0.035263
0.306148 0.030591 0.078023
0.269852 -0.179250 0.240802
0.263253 -0.207804 0.202732
0.275122 -0.171001 0.167991
0.286938 -0.084016 0.203155
0.284666 -0.129644 0.196769
0.261736 -0.174123 0.069537
0.178634 -0.362758 0.415158
0.195077 -0.365456 0.449116
0.161460 -0.400100 0.413989
0.151586 -0.419983 0.420345
0.112109 -0.403953 0.330628
0.142858 -0.395253 0.349081
0.153911 -0.387808 0.340008
0.180788 -0.365284 0.348270
0.074671 -0.392732 0.155887
0.068128 -0.409397 0.147636
0.037411 -0.399747 0.181029
0.040252 -0.407755 0.194499
0.042475 -0.410406 0.099171
0.025943 -0.420422 0.144343
0.064251 -0.393963 0.067452
0.058352 -0.394052 0.106836
0.372510 -0.080059 -0.395886
0.256262 -0.009691 -0.390362
0.279089 -0.027047 -0.347769
0.152562 0.063293 -0.466094
0.035991 -0.003942 -0.490437
0.049757 0.045946 -0.498227
0.091271 0.054001 -0.514942
0.219121 0.124473 -0.438362
0.076352 0.206219 -0.610089
0.119614 0.244944 -0.521500
0.255377 -0.087439 -0.462211
0.387367 -0.127271 -0.460395
0.351622 -0.118689 -0.481257
0.208721 -0.151462 -0.377043
0.180886 -0.181101 -0.353290
0.264390 -0.159125 -0.357198
0.255335 -0.170699 -0.385408
0.235819 -0.172209 -0.348585
0.193043 -0.165962 -0.353529
0.135564 -0.097461 -0.452406
0.172517 -0.155699 -0.211967
0.080327 0.264109 -0.390128
0.040171 0.285636 -0.404792
0.031471 0.296269 -0.373358
0.262744 -0.006314 -0.208905
0.243749 0.045046 -0.188203
0.270520 0.022645 -0.235122
0.266986 0.102931 -0.200866
0.249094 0.043250 -0.159176
0.231384 0.076038 -0.170305
0.068221 0.252034 -0.114519
0.083896 0.236987 -0.110904
0.134374 0.238464 -0.144500
0.187966 -0.254277 -0.036701
0.170144 -0.266271 -0.069848
0.188996 -0.213559 -0.058564
0.244650 -0.102004 -0.018175
0.207997 -0.127742 -0.052220
0.226981 -0.070672 -0.074717
0.209510 -0.062930 -0.092048
0.208589 -0.035846 -0.116864
0.041456 -0.279058 -0.220096
0.035726 -0.254669 -0.264253
0.053880 -0.220971 -0.284685
0.070351 -0.252462 -0.242103
0.269991 0.207389 -0.349929
0.132270 0.264549 -0.451915
0.192522 -0.122500 -0.208413
0.367686 -0.039342 -0.300331
0.313582 -0.021217 -0.286022
0.351847 -0.100386 -0.296662
0.364357 -0.063454 -0.290296
0.389400 -0.086087 -0.312978
0.079031 0.281102 -0.506565
0.026358 0.268918 -0.510247
0.215203 0.212684 -0.469496
0.144578 0.162217 -0.495206
0.291848 0.108174 -0.391133
0.190413 -0.021431 -0.443083
0.221828 -0.000497 -0.421038
0.122324 0.107172 -0.489046
0.240787 -0.038970 -0.376524
0.320306 -0.115848 -0.466616
0.297704 -0.085210 -0.476514
0.271066 -0.074738 -0.426806
0.299439 -0.073404 -0.455943
0.099291 -0.415769 0.308480
0.063437 -0.421331 0.296723
0.022489 -0.422390 0.217689
0.037620 -0.421157 0.247710
0.097087 -0.416123 0.208022
0.194657 -0.398593 0.503155
0.173652 -0.400012 0.526694
0.136156 -0.427575 0.515285
0.155349 -0.434209 0.546777
0.134925 -0.443744 0.494099
0.179946 -0.393416 0.456151
0.251948 -0.167726 -0.018029
0.252936 -0.214147 0.022483
0.252145 -0.235861 0.445730
0.278408 -0.191140 0.454314
0.250271 -0.180242 0.433174
0.281141 -0.152155 0.449631
0.312545 -0.146409 0.523256
0.289941 -0.116305 0.474250
0.295027 -0.145908 0.500772
0.296424 -0.174085 0.494137
0.295144 -0.220465 0.519498
0.306051 -0.068397 0.127967
0.311536 -0.025265 0.158505
0.316042 -0.003741 0.130252
0.253130 -0.079753 0.438460
0.274007 -0.055796 0.479955
0.286737 -0.040630 0.508760
0.294994 0.030902 0.551032
0.294525 -0.032967 0.533712
0.285819 -0.009853 0.537423
0.308901 0.050941 0.643992
0.291318 0.113654 0.656639
0.290637 0.113780 0.618073
0.283791 0.161437 0.634471
0.290684 0.144584 0.676525
0.267119 0.076887 0.030547
0.276034 0.112502 0.056601
0.289426 0.093663 0.115473
0.289231 0.178312 0.449243
0.292620 0.147685 0.476243
0.292155 0.122720 0.507870
0.182937 0.234694 -0.059697
0.033748 0.201022 0.385254
0.052848 0.184505 0.422594
0.061411 0.177171 0.432430
0.108200 0.182927 0.388369
0.160670 0.162860 0.673092
0.030557 0.068707 0.805164
0.038698 0.044940 0.822362
0.073987 0.088816 0.787226
0.061482 0.053816 0.846854
0.132048 0.000242 0.891346
0.125545 0.009068 0.865345
0.099435 0.014643 0.852218
0.134662 0.023266 0.848345
0.142100 0.093537 0.788191
0.089784 0.059033 0.816987
0.022794 -0.394557 0.858494
0.045519 -0.399698 0.839118
0.096224 -0.420652 0.797153
-0.162750 0.075006 -0.020966
0.018332 0.244426 -0.111729
-0.063626 0.220597 -0.134450
-0.050057 0.219439 -0.102871
-0.201644 0.047328 -0.123458
-0.184742 0.072480 -0.144120
-0.192134 0.096302 -0.144660
-0.231605 0.035521 -0.227773
-0.223278 0.007556 -0.204710
-0.223946 0.071974 -0.198966
-0.051467 0.264677 -0.440374
-0.001814 0.296225 -0.388592
-0.060675 -0.194772 -0.366308
-0.062980 -0.153192 -0.391289
-0.114232 -0.165733 -0.378081
-0.220568 -0.142265 -0.317616
-0.215824 -0.149044 -0.313293
-0.353997 -0.121009 -0.447734
-0.347734 -0.130718 -0.399587
-0.146217 0.257171 -0.433490
-0.072800 0.236374 -0.572591
-0.185084 0.222897 -0.466358
-0.191048 0.213435 -0.448323
-0.185627 0.187682 -0.471280
-0.217533 0.166305 -0.462427
0.024944 -0.033644 -0.511503
-0.009708 0.000560 -0.495999
-0.029946 -0.053864 -0.485602
-0.041603 -0.023174 -0.512830
-0.050983 0.093739 -0.502143
-0.158533 -0.054057 -0.422691
-0.228746 -0.067948 -0.437890
-0.271014 -0.070366 -0.399076
-0.241624 -0.078480 -0.378321
-0.331249 -0.076373 -0.433143
-0.353319 -0.101503 -0.467164
-0.068016 -0.400935 0.210125
-0.086004 -0.365378 0.126172
-0.101307 -0.365481 0.177857
-0.136057 -0.351614 0.090037
-0.099209 -0.341415 0.051574
-0.098715 -0.351432 0.112067
-0.144489 -0.338838 0.260699
-0.172754 -0.319555 0.291934
-0.165601 -0.314412 0.254607
-0.152391 -0.344878 0.276596
-0.197438 -0.273261 0.353217
-0.219346 -0.246401 0.303800
-0.182682 -0.291879 0.349645
-0.183253 -0.287688 0.315045
-0.205270 -0.240520 0.263648
-0.239548 -0.216039 0.346876
-0.220830 -0.223394 0.401502
-0.221849 -0.214054 0.404719
-0.226460 -0.124290 0.432139
-0.248599 -0.055272 0.054404
-0.242668 -0.026737 0.031791
-0.256004 -0.011190 0.061889
-0.284840 -0.047670 0.090599
-0.262503 0.018186 0.102033
-0.272000 0.049346 0.068509
-0.285615 -0.052441 0.680351
-0.272539 -0.079611 0.736126
-0.263022 -0.064254 0.757408
-0.247029 0.037336 0.722239
-0.270556 0.168267 0.600336
-0.236468 0.101476 0.022952
-0.179695 0.113397 -0.033288
-0.140715 0.124344 -0.028758
0.014230 0.215764 0.178669
-0.027718 0.193108 0.215098
0.005741 0.218154 0.140812
-0.049592 0.196573 0.124088
-0.027827 0.218818 0.143110
-0.057465 0.203706 0.151772
-0.275508 0.194773 0.454207
-0.122849 0.186062 0.677108
-0.089755 0.183705 0.626535
-0.199369 -0.025288 0.849377
-0.206327 -0.018868 0.820793
-0.197678 0.011657 0.819533
-0.026414 -0.031565 0.909778
-0.071272 -0.031705 0.922071
-0.058628 -0.052842 0.929766
-0.097429 -0.172378 0.964321
-0.101408 -0.231413 0.955296
-0.052651 -0.233613 0.976492
0.039358 -0.296406 0.974549
0.048974 -0.234722 0.964089
-0.080273 -0.109920 0.961388
-0.086995 -0.091293 0.946982
-0.075295 -0.077280 0.927029
-0.029754 -0.090785 0.954754
-0.229394 0.202647 0.669634
-0.193288 0.173093 0.705493
-0.013262 0.088960 0.756482
0.011157 0.101149 0.737766
0.015283 0.139786 0.652517
-0.040176 0.130012 0.707840
-0.031149 0.159482 0.631754
-0.055516 0.163101 0.656449
-0.089154 0.132867 0.707302
-0.063145 0.145531 0.712932
-0.033607 0.188934 0.382571
-0.014654 0.197943 0.398805
-0.061868 0.184411 0.388771
-0.027199 0.197896 0.443549
-0.266466 0.183362 0.064578
-0.246091 0.143827 0.023688
-0.212802 0.069368 0.507380
-0.236984 0.073024 0.509980
-0.088159 -0.436185 0.761615
-0.049260 -0.414356 0.788343
-0.097520 -0.412145 0.777146
-0.121223 -0.370186 0.808420
-0.158312 -0.358383 0.805840
-0.162792 -0.371805 0.681230
-0.177450 -0.346130 0.721673
-0.160839 -0.393493 0.732927
-0.130180 -0.380253 0.738879
-0.106204 -0.423522 0.720358
-0.182747 0.057453 -0.012516
-0.240279 -0.184476 0.175451
-0.244647 -0.154316 0.163516
-0.253063 -0.095960 0.247427
-0.246547 -0.082637 0.237722
-0.222658 -0.201787 0.063246
-0.236296 -0.192119 0.046049
-0.088737 -0.421823 0.389207
-0.115458 -0.402015 0.399072
-0.132520 -0.399028 0.408765
-0.123750 -0.378428 0.359591
-0.077408 -0.408422 0.333520
0.006311 -0.423059 0.169711
-0.003643 -0.403545 0.225576
-0.029111 -0.397679 0.195124
-0.032311 -0.394129 0.078027
-0.059995 -0.384813 0.125224
-0.005470 -0.397619 0.122498
-0.005440 -0.409949 0.084168
-0.357088 -0.078005 -0.390168
-0.247201 -0.036209 -0.376983
-0.240435 -0.046534 -0.352228
-0.082340 0.051078 -0.482574
-0.120401 0.012608 -0.476864
-0.111986 0.037601 -0.468681
-0.007187 0.055151 -0.497736
-0.056315 0.026454 -0.492334
-0.011451 0.032607 -0.514870
-0.201369 0.104908 -0.438796
-0.072899 0.251454 -0.522406
-0.290085 -0.115193 -0.472566
-0.222734 -0.121331 -0.447651
-0.253298 -0.120259 -0.475337
-0.292528 -0.129446 -0.456179
-0.192107 -0.163914 -0.389678
-0.130980 -0.149994 -0.372734
-0.214292 -0.152997 -0.339474
-0.206204 -0.026107 -0.221722
-0.166569 0.258784 -0.407368
-0.141056 0.251728 -0.407060
-0.135790 0.283557 -0.330035
-0.138110 0.275020 -0.373056
-0.119026 0.276170 -0.382452
-0.236418 0.183004 -0.318685
-0.229929 0.186252 -0.277815
-0.203268 0.223607 -0.264951
-0.206694 0.017437 -0.165378
-0.001551 -0.317375 -0.135743
-0.038946 -0.345046 -0.067764
-0.035564 -0.324957 -0.100500
-0.037779 -0.292256 -0.165626
-0.180076 0.015157 -0.042524
0.082854 -0.325895 0.943697
0.132151 -0.294343 0.934080
0.037925 -0.037501 0.897576
0.021345 0.005994 0.880008
0.043333 -0.084491 0.929391
0.222809 0.065837 0.789355
0.239800 0.035007 0.802037
0.230957 0.001315 0.828013
0.288934 -0.058277 0.786129
0.265793 -0.036333 0.832776
0.299300 -0.017272 0.756490
0.024197 0.139542 0.704332
0.048072 0.135495 0.663124
0.040071 0.149396 0.628915
0.024384 0.086891 0.764318
0.028915 0.125237 0.714357
0.105736 0.089245 0.755842
0.132178 0.119307 0.732731
0.066480 0.134079 0.719115
0.116808 0.141500 0.705535
0.077758 0.153211 0.670377
0.301098 0.242015 0.082879
0.278744 0.210461 0.112353
0.295596 0.209325 -0.017025
0.159624 0.135243 0.403199
0.160517 0.136694 0.434175
0.220524 0.096149 0.242180
0.222964 0.082630 0.264441
0.239959 0.050950 0.342911
0.246210 0.048265 0.316958
0.256494 0.045452 0.268249
0.089412 -0.418537 0.746646
0.071731 -0.423214 0.765231
0.051532 -0.431979 0.748096
0.029364 -0.446327 0.705895
0.067335 -0.449573 0.733442
0.280187 -0.063925 0.262665
0.273951 -0.039650 0.305937
0.248844 0.038850 0.355722
0.256991 -0.015050 0.322090
0.280236 -0.095945 0.335188
0.258550 -0.066538 0.336675
0.294574 -0.154774 0.094273
0.282363 -0.152798 0.067435
0.257153 -0.162056 0.034515
0.277088 -0.090713 0.027726
0.279895 -0.056941 0.029114
0.282782 -0.112513 0.057146
0.200688 -0.243869 -0.020987
0.204454 -0.334865 0.359926
0.219118 -0.301062 0.335044
0.220750 -0.277961 0.359347
0.152780 -0.365756 0.313967
0.136733 -0.391168 0.300145
0.125969 -0.388898 0.304623
0.117999 -0.378916 0.255228
0.141755 -0.384282 0.232762
0.073262 -0.366476 0.034676
0.051939 -0.361920 -0.018510
0.318392 -0.089117 -0.366908
0.318493 -0.046623 -0.355792
0.376738 -0.057947 -0.360917
0.082437 0.135369 -0.546765
0.091875 0.171059 -0.565985
0.245918 0.063517 -0.425466
0.125977 0.233613 -0.560993
0.123222 0.199488 -0.550928
0.088162 0.267085 -0.534844
0.141582 -0.078789 -0.477686
0.109030 -0.035698 -0.487344
0.145100 -0.034580 -0.462988
0.337587 -0.129221 -0.342800
0.294880 -0.160303 -0.338382
0.320234 -0.081402 -0.289167
0.279548 -0.062162 -0.277970
0.286303 -0.023957 -0.250777
0.295191 0.080383 -0.265116
0.294991 0.043841 -0.324896
0.298332 0.113640 -0.346067
0.241508 0.206394 -0.408159
0.247053 0.222303 -0.434407
0.203634 0.247805 -0.421981
0.232873 0.221367 -0.416719
0.199814 0.230535 -0.222609
0.215651 0.211459 -0.234432
0.177290 0.265237 -0.262910
0.160601 0.236506 -0.219243
0.156412 0.227023 -0.193910
0.212275 0.152705 -0.170767
0.248941 0.129532 -0.185588
0.085016 -0.311355 -0.079477
0.110303 -0.321225 -0.062641
0.103758 -0.293005 -0.092626
0.161588 -0.254117 -0.101524
0.134276 -0.278892 -0.137380
0.155864 -0.268817 -0.070614
0.222111 0.058742 -0.045169
0.200577 0.099411 -0.080879
0.229054 0.016676 -0.102000
0.220734 0.070975 -0.077649
0.094474 -0.249116 -0.226989
0.080447 -0.270346 -0.163429
0.105840 -0.228786 -0.231273
0.097218 -0.224930 -0.296699
0.144509 -0.193401 -0.268822
0.134205 -0.219825 -0.208037
0.207560 0.256133 -0.328469
0.203796 0.235395 -0.330900
0.157457 0.284204 -0.316211
0.290917 0.151963 -0.343226
0.295405 0.164797 -0.339763
0.299044 0.160244 -0.303867
0.149511 -0.180984 -0.318329
0.101005 -0.181012 -0.346828
0.121983 -0.148975 -0.394126
0.111729 -0.137023 -0.403681
0.120448 -0.129888 -0.448330
0.059267 -0.054000 -0.496725
0.054538 0.263542 -0.533189
0.019681 0.202910 -0.611486
0.133640 0.160351 -0.514125
0.278151 0.082692 -0.345490
0.259215 0.054751 -0.378770
0.270577 0.107437 -0.421026
0.043462 0.149151 -0.578042
0.054235 0.157291 -0.590750
0.215225 0.051161 -0.442048
0.399989 -0.051194 -0.336499
0.444227 -0.113535 -0.321982
0.109594 -0.430252 0.415714
0.074402 -0.428293 0.413918
0.056577 -0.450052 0.428190
0.040590 -0.433534 0.313963
0.055813 -0.420058 0.359222
0.230071 -0.362893 0.645547
0.213808 -0.379898 0.652401
0.185997 -0.396300 0.627744
0.148153 -0.415743 0.649233
0.137401 -0.418773 0.680265
0.142103 -0.432849 0.568749
0.160861 -0.419870 0.592248
0.167505 -0.389825 0.582253
0.209928 -0.398396 0.552622
0.187278 -0.340782 0.191927
0.195316 -0.306299 0.228587
0.201256 -0.309904 0.148301
0.197984 -0.286263 0.185023
0.180977 -0.324126 0.095347
0.164810 -0.331993 0.142719
0.240320 -0.240372 0.082113
0.200507 -0.261518 0.074639
0.226094 -0.258895 0.120949
0.237769 -0.247632 0.154253
0.251659 -0.227198 0.190010
0.241802 -0.241695 0.099830
0.267485 -0.203678 0.156211
0.291602 -0.168113 0.127994
0.288852 -0.086807 0.120179
0.287482 -0.136085 0.119383
0.298927 -0.081325 0.156538
0.218577 0.054214 -0.036635
0.179668 -0.366307 0.810997
0.179455 -0.372953 0.765438
0.168705 -0.372966 0.778186
0.127442 -0.420394 0.694427
0.136404 -0.421479 0.692564
0.149030 -0.392948 0.725435
0.120125 -0.408018 0.742218
0.190766 -0.386286 0.711138
0.203858 -0.375544 0.710277
0.233532 0.056773 0.374061
0.236374 0.059009 0.429272
0.223371 0.085509 0.397302
0.203750 0.096673 0.433758
0.232443 0.059572 0.481995
0.213692 0.076853 0.449291
0.101980 0.181327 0.255822
0.132396 0.182842 0.235815
0.129385 0.177858 0.298268
0.168150 0.151417 0.371952
0.183089 0.126142 0.348954
0.168700 0.136512 0.335698
0.189036 0.124603 0.287087
0.196362 0.137265 0.218383
0.121201 0.211151 -0.044767
0.145148 0.178338 -0.057529
0.028759 0.208605 0.281352
0.065088 0.198335 0.259260
0.053941 0.217685 0.328826
0.091322 0.197667 0.337661
0.099448 0.180391 0.316409
0.072791 0.212160 0.309966
0.101113 0.193035 0.278562
0.267372 0.204967 0.400437
0.266465 0.081721 0.717488
0.280192 0.133846 0.721863
0.265174 0.081194 0.736079
0.198760 0.087181 0.786554
0.202182 0.025604 0.824502
0.163690 0.079550 0.781225
0.147463 0.010998 0.880008
0.163227 -0.023632 0.905089
0.191682 0.015513 0.852455
0.168989 0.027929 0.858866
0.223969 0.009489 0.850364
0.304220 -0.253783 0.688963
0.279466 -0.271341 0.725827
0.276324 -0.285068 0.752508
0.278405 -0.221572 0.811470
0.210075 -0.310975 0.794352
0.244761 -0.287984 0.794328
0.254087 -0.319939 0.702784
0.259524 -0.301691 0.744137
-0.087993 -0.291324 -0.146065
-0.047336 -0.302204 -0.111454
-0.070229 -0.303688 -0.078424
-0.128493 -0.303182 -0.045776
-0.132385 -0.271542 -0.076405
-0.157785 0.166205 -0.150632
-0.171645 0.192771 -0.176349
-0.121913 0.228251 -0.166904
-0.164045 0.247353 -0.255813
-0.190759 0.221146 -0.238027
-0.124415 0.238567 -0.205490
-0.152888 0.222431 -0.227301
-0.119111 0.256399 -0.232723
-0.218941 0.205316 -0.446442
-0.197903 0.218518 -0.417005
-0.250825 0.090163 -0.310302
-0.254414 0.150760 -0.284745
-0.262536 0.128487 -0.333319
-0.285409 -0.081534 -0.308610
-0.274226 -0.051192 -0.293765
-0.315908 -0.128361 -0.317678
-0.296979 -0.137294 -0.341428
-0.088860 -0.030911 -0.479246
-0.125667 -0.038078 -0.457486
-0.095266 0.233665 -0.530927
-0.081201 0.206893 -0.550071
-0.092264 0.110418 -0.489651
-0.234106 0.033216 -0.357394
-0.076782 0.175620 -0.582172
-0.036566 0.187222 -0.601085
-0.314761 -0.080239 -0.358748
-0.297111 -0.042548 -0.347248
0.019615 -0.372809 -0.003705
-0.025174 -0.377371 0.051148
-0.041828 -0.350436 -0.011974
-0.047051 -0.346271 -0.033015
-0.026094 -0.376888 -0.018092
-0.088181 -0.384864 0.264479
-0.104328 -0.381359 0.324144
-0.134942 -0.372138 0.326567
-0.155092 -0.346369 0.233876
-0.097876 -0.376732 0.218894
-0.146529 -0.354685 0.366472
-0.185083 -0.308658 0.376125
-0.176638 -0.349479 0.389085
-0.236380 -0.171125 0.026310
-0.257796 -0.168638 0.071701
-0.256774 -0.118109 0.105916
-0.262350 -0.089868 0.082220
-0.254208 -0.078241 0.056860
-0.219918 0.045121 0.248371
-0.220541 0.011947 0.262545
-0.214885 0.006820 0.298668
-0.227165 -0.047246 0.273769
-0.234045 -0.064879 0.338830
-0.224648 -0.037102 0.302006
-0.222252 -0.008482 0.324832
-0.211811 0.026781 0.336097
0.006708 -0.444433 0.762436
-0.016329 -0.422611 0.793965
-0.035069 -0.436081 0.726351
-0.004923 -0.447313 0.694248
-0.184556 0.112164 0.310262
-0.174419 0.114706 0.344365
-0.170907 0.138403 0.249666
-0.197467 0.073190 0.261126
-0.202457 0.057709 0.347755
-0.204156 0.077267 0.311442
-0.078171 0.180479 0.464525
-0.094314 0.162995 0.407756
-0.141010 0.114251 0.410269
-0.187808 0.187629 -0.033543
-0.003571 0.216482 0.357472
0.000327 0.209944 0.310944
-0.017498 0.209689 0.328251
-0.076699 0.185493 0.242042
-0.043355 0.208513 0.256860
-0.089703 0.190220 0.305779
-0.088371 0.167667 0.323725
-0.256584 0.097262 0.707193
-0.233584 0.081088 0.748640
-0.107755 0.106864 0.743437
-0.108146 0.094014 0.796368
-0.132671 0.045425 0.826194
-0.153936 0.040743 0.803827
-0.177517 -0.030990 0.874860
-0.154263 0.002969 0.877852
-0.180481 0.004376 0.844853
-0.142881 -0.013020 0.897814
-0.025953 -0.378366 0.891662
-0.227863 -0.216274 0.822918
-0.233357 -0.240288 0.776810
-0.221823 -0.262748 0.796268
-0.263055 -0.252605 0.703856
-0.264422 -0.256717 0.743698
-0.231730 -0.265809 0.747821
-0.201712 -0.351734 0.680904
-0.218427 -0.330735 0.698074
-0.214896 -0.317318 0.741848
-0.222778 -0.331750 0.701678
-0.175755 -0.317300 0.793308
0.033989 -0.354458 0.942690
0.006365 -0.321710 0.960611
-0.139657 0.218862 0.643289
-0.111983 0.203305 0.628091
-0.120086 0.234231 0.580616
-0.141049 0.233146 0.601974
-0.104158 -0.290268 0.941366
-0.124677 -0.229323 0.953951
-0.124337 -0.299445 0.904288
-0.174174 -0.269550 0.897487
-0.130592 -0.237070 0.925837
-0.178126 -0.231489 0.911631
-0.189239 -0.249043 0.864450
-0.202776 -0.293764 0.838889
-0.188792 0.123152 0.728860
-0.167232 0.130870 0.727778
-0.194012 0.159321 0.713154
-0.179810 0.092935 0.784483
-0.114410 0.236826 0.548957
-0.087726 0.201289 0.533932
-0.095914 0.200109 0.569040
-0.097110 0.211456 0.479849
-0.123460 0.228394 0.421058
0.007379 0.210863 0.108798
-0.025793 0.217237 0.096832
-0.094266 0.212807 -0.017991
-0.066427 0.221294 0.019697
-0.062040 0.227110 0.080991
-0.066195 0.204238 0.085303
-0.172139 0.129751 -0.043063
-0.232930 0.160689 0.000282
-0.199772 0.136227 -0.006071
-0.266309 0.168446 0.486209
-0.282183 0.129652 0.486879
-0.249929 0.083748 0.681229
-0.268213 0.055417 0.710259
-0.258521 0.040352 0.666240
-0.247140 0.028009 0.212753
-0.248239 0.008793 0.188407
-0.253984 0.008818 0.174948
-0.233272 -0.168664 0.267981
-0.227167 -0.205386 0.283631
-0.224888 -0.214568 0.342827
-0.234401 -0.181677 0.323332
-0.245824 -0.107243 0.364330
-0.230551 -0.153756 0.325094
-0.254701 -0.092516 0.294490
-0.211969 -0.222037 0.093543
-0.233219 -0.201155 0.117671
-0.260169 -0.241213 0.574017
-0.235313 -0.289895 0.540465
-0.251331 -0.265685 0.568035
-0.240559 -0.312116 0.578090
-0.191320 -0.362971 0.539446
-0.227542 -0.332140 0.547103
-0.245217 -0.332787 0.573372
-0.193556 -0.345891 0.630679
-0.240487 -0.313586 0.662282
-0.227466 -0.308067 0.613013
-0.268629 -0.264609 0.633574
-0.003711 -0.455706 0.556339
-0.014462 -0.458574 0.531110
-0.041817 -0.442812 0.555144
-0.035863 -0.431862 0.452753
-0.082639 -0.433383 0.480330
-0.044515 -0.437621 0.496437
-0.036016 -0.445161 0.500294
-0.094058 -0.009167 -0.505603
-0.224658 0.129261 -0.413161
-0.251622 0.154433 -0.432292
-0.041896 0.280111 -0.495871
-0.095546 0.262560 -0.467225
-0.092608 0.262627 -0.472632
-0.171266 -0.077414 -0.448271
-0.137841 -0.134858 -0.423439
-0.110764 -0.155284 -0.399805
-0.143945 -0.111432 -0.437574
-0.159586 -0.141714 -0.422096
-0.212245 -0.138403 -0.444988
-0.332044 -0.083972 -0.307948
-0.105021 -0.205698 -0.251539
-0.143814 -0.168823 -0.243928
-0.195000 -0.088413 -0.220912
-0.171192 -0.121600 -0.245335
-0.088184 0.285353 -0.306166
-0.059577 0.272634 -0.290214
-0.096298 0.254175 -0.275383
0.016145 0.270489 -0.237680
-0.021314 0.262903 -0.250772
-0.195617 -0.038140 -0.164962
-0.184063 -0.081413 -0.141351
-0.177542 -0.068717 -0.161424
-0.126183 0.147297 -0.052258
-0.129856 0.178659 -0.089168
-0.092888 0.193161 -0.068990
-0.097866 0.185508 -0.097622
-0.172013 0.158167 -0.121370
-0.126823 0.173531 -0.117151
0.128753 0.184451 0.617013
0.197719 0.227516 0.609615
0.130175 -0.270829 0.928175
0.174613 -0.243090 0.936419
0.164273 -0.196727 0.950273
0.209608 -0.190444 0.922541
0.231258 -0.217595 0.894195
0.157754 -0.272395 0.905321
0.195894 -0.260880 0.900331
0.158592 -0.278913 0.913725
0.211295 -0.302453 0.822963
0.226543 -0.268677 0.862580
0.234635 -0.272297 0.836423
0.236717 0.122628 0.730942
0.196604 0.154391 0.710590
0.161994 0.091264 0.766717
0.195894 0.129996 0.746202
0.108472 0.204665 0.542019
0.139829 0.205406 0.556798
0.125172 0.229038 0.545930
0.154157 0.210269 0.480998
0.120705 0.218133 0.491899
0.020668 0.236832 0.062627
0.027908 0.229291 0.031689
0.061586 0.226405 0.052998
0.087592 0.196525 0.090593
0.095461 0.199657 0.050854
0.218082 0.122785 -0.014523
0.221776 0.090403 -0.006143
0.256096 0.113714 -0.008591
0.305220 0.187127 0.568050
0.305193 0.169189 0.581567
0.312312 0.187418 0.531821
0.307799 0.218981 0.574655
0.301439 0.182226 0.576416
0.328134 -0.093950 0.571890
0.311709 -0.049838 0.547535
0.323779 -0.061561 0.595017
0.302269 -0.002676 0.561389
0.299896 0.015275 0.589785
0.313255 -0.026992 0.612232
0.339410 -0.104567 0.646714
0.263973 -0.120726 0.002828
0.254387 -0.237766 0.387299
0.248073 -0.214834 0.408650
0.270366 -0.130982 0.403215
0.193343 -0.359461 0.332524
0.209973 -0.325521 0.292203
0.224914 -0.262161 0.282156
0.215573 -0.280591 0.256928
0.236373 -0.267700 0.311385
0.146243 -0.360607 0.187547
0.135741 -0.383084 0.146806
0.098559 -0.374098 0.075409
0.118875 -0.371264 0.110348
0.134659 -0.351825 0.073434
0.123261 -0.377511 0.106501
0.441107 -0.101423 -0.440518
0.368987 -0.089072 -0.455164
0.406262 -0.083579 -0.416956
0.336607 -0.074983 -0.414994
0.285997 -0.080830 -0.380534
0.237425 -0.078412 -0.445020
0.218661 -0.084458 -0.458376
0.188839 -0.058434 -0.442790
0.081159 0.076683 -0.501601
0.048791 -0.078534 -0.497898
0.031261 -0.030212 -0.492735
0.091661 0.018083 -0.492942
0.225335 0.171559 -0.460602
0.103471 0.229268 -0.593196
0.428306 -0.130200 -0.443370
0.403522 -0.147502 -0.409108
0.273198 -0.136055 -0.325020
0.302302 -0.123184 -0.318834
0.160057 -0.181040 -0.226490
0.172954 -0.184117 -0.189802
0.219131 -0.095017 -0.206603
0.262100 -0.082134 -0.236440
0.205156 0.247274 -0.367957
0.268198 0.161810 -0.270416
0.278170 0.199321 -0.312064
0.257830 0.222014 -0.267892
0.220163 0.040951 -0.118682
0.217648 0.090778 -0.132808
0.019107 -0.338269 -0.069307
0.018988 -0.367225 -0.039602
0.024417 -0.314016 -0.121773
0.092435 -0.310263 -0.150236
0.046170 -0.338678 -0.119670
0.212618 -0.051898 -0.029737
0.105812 0.217018 -0.099783
0.164577 0.169634 -0.105617
0.183431 0.144951 -0.056098
0.202833 0.150834 -0.113219
0.191183 0.157177 -0.085053
0.167019 0.183502 -0.142902
0.222599 -0.103868 -0.195565
0.213474 -0.079125 -0.171941
0.200069 -0.086929 -0.146873
0.106327 0.281655 -0.250861
0.122159 0.279075 -0.290242
0.070464 0.274962 -0.272466
0.144414 0.282759 -0.420529
0.227856 -0.088861 -0.253944
0.164444 -0.186177 -0.267844
0.198651 -0.146004 -0.258221
0.407685 -0.113499 -0.341378
0.174198 -0.091690 -0.435886
0.207175 -0.090897 -0.456606
0.244333 -0.139509 -0.452582
0.198729 -0.150775 -0.420356
0.180216 -0.146119 -0.398149
0.128953 0.246394 -0.473203
0.271921 0.153970 -0.398917
0.267268 0.154906 -0.435131
0.276745 0.167791 -0.440259
0.115507 -0.000502 -0.507738
0.152633 0.027922 -0.502144
0.121498 0.026114 -0.516707
0.114462 0.063046 -0.492484
0.396846 -0.086482 -0.361899
0.101440 -0.441138 0.566465
0.101867 -0.437854 0.522628
0.058498 -0.468902 0.556667
0.027228 -0.443734 0.460832
0.038991 -0.448010 0.470905
0.051961 -0.447617 0.512293
0.079213 -0.449478 0.466704
0.237208 -0.376588 0.593557
0.225531 -0.344306 0.550413
0.250316 -0.316585 0.580503
0.265046 -0.281908 0.553054
0.295448 -0.248292 0.537556
0.279647 -0.286121 0.623128
0.300434 -0.280955 0.647725
0.273514 -0.288195 0.672067
0.272015 -0.202137 0.093028
0.265868 -0.212959 0.334708
0.276689 -0.156562 0.320166
0.257032 -0.208868 0.265359
0.252921 -0.213570 0.297065
0.259447 -0.115270 0.243479
0.260586 -0.166513 0.276764
0.280635 -0.112531 0.277889
0.279202 -0.139462 0.313200
0.306972 0.033639 0.146631
0.265179 -0.000240 0.202309
0.282672 0.019976 0.178947
0.283011 0.047012 0.179932
0.301691 0.095637 0.669565
0.294013 0.074576 0.717142
0.318138 0.157099 0.511522
0.296800 0.154085 0.493949
0.333969 0.210204 0.504747
0.227147 0.140478 -0.009285
0.206071 0.166941 -0.042040
0.320992 0.222683 0.004272
0.317069 0.206687 0.057024
0.041972 0.205453 0.117277
0.053164 0.223010 0.167575
0.035172 0.223709 0.195266
0.072031 0.196981 0.207933
0.097343 0.200029 0.148263
0.181058 0.224941 0.418250
0.333203 0.208471 0.457898
0.278023 0.177576 0.657574
0.276233 0.166328 0.687816
0.230000 -0.073949 0.883386
0.230318 -0.098245 0.876857
0.205055 -0.146729 0.893741
0.240812 -0.133398 0.895104
0.239176 -0.175030 0.859453
0.263481 -0.189496 0.828075
0.274915 -0.135416 0.846039
0.292949 -0.097396 0.824086
0.059493 -0.345849 0.901379
0.219137 0.235164 -0.471675
0.152975 0.245369 -0.477733
-0.123346 -0.235950 -0.107008
-0.146813 -0.234875 -0.068831
-0.179238 0.004753 -0.063534
-0.168832 0.063071 -0.051649
-0.190867 0.079868 -0.091425
-0.177200 0.016935 -0.106272
-0.061493 -0.233514 -0.284039
-0.048877 -0.216089 -0.314232
-0.071416 -0.225319 -0.256981
-0.043508 -0.253666 -0.205812
-0.117605 -0.243344 -0.143771
-0.083048 -0.262073 -0.176120
-0.096215 -0.202804 -0.229786
-0.184840 0.253411 -0.364137
-0.189295 0.244500 -0.360169
-0.188813 0.249886 -0.323481
-0.160018 0.264946 -0.292680
-0.243948 0.166097 -0.378969
-0.246178 0.165607 -0.314800
-0.101281 -0.168226 -0.335361
-0.078155 -0.200634 -0.336130
-0.099921 -0.186600 -0.285395
-0.141557 -0.163237 -0.310547
-0.136814 -0.090519 -0.445799
-0.107098 -0.123070 -0.427978
-0.271398 -0.137852 -0.427010
-0.238866 -0.162153 -0.371789
-0.270521 -0.166861 -0.371450
0.005514 -0.125673 -0.451594
-0.026141 -0.113953 -0.460928
0.008922 0.288436 -0.458028
-0.009800 0.292496 -0.476385
-0.048814 0.248557 -0.594746
-0.118544 0.146947 -0.481299
-0.175817 0.026770 -0.451098
-0.192342 0.003464 -0.408970
-0.217374 0.030221 -0.403851
-0.051734 0.128154 -0.499113
-0.066443 0.164156 -0.536617
-0.213781 -0.071254 -0.446208
-0.004793 -0.465925 0.677242
-0.021653 -0.474605 0.659254
-0.036013 -0.440631 0.677701
-0.066055 -0.444062 0.621060
-0.035203 -0.478327 0.620334
-0.001030 -0.456140 0.599118
-0.165160 -0.380102 0.433135
-0.193848 -0.338008 0.438074
-0.185452 -0.357548 0.476444
-0.239564 -0.240380 0.492543
-0.216455 -0.276763 0.481152
-0.216457 -0.253606 0.435289
-0.224760 -0.247263 0.485165
-0.256284 -0.238832 0.540987
-0.273962 -0.217883 0.541742
-0.292952 -0.219094 0.591355
-0.290515 -0.223706 0.634721
-0.288492 -0.120158 0.654629
-0.308896 -0.149996 0.629995
-0.279807 -0.132015 0.585239
-0.278937 -0.150756 0.585694
-0.286077 -0.104116 0.591242
-0.218242 -0.025394 -0.006747
-0.203788 -0.109363 -0.008914
-0.224774 -0.136572 0.018691
-0.228266 -0.092069 0.017661
-0.250052 0.021200 0.569736
-0.260075 -0.006630 0.553764
-0.290463 -0.064757 0.574560
-0.270059 -0.100646 0.541490
-0.268188 -0.068404 0.554171
-0.284337 -0.054746 0.648337
-0.286325 -0.081651 0.630322
-0.277906 -0.057281 0.602399
-0.282370 0.036935 0.634204
-0.275907 -0.021343 0.641169
-0.310625 0.205979 0.495884
-0.303340 0.189430 0.514309
-0.283391 0.181806 0.555117
-0.275470 0.220488 0.543320
-0.265625 0.133952 0.583340
-0.248052 0.049798 0.157999
-0.245463 0.088128 0.165320
-0.230734 0.125343 0.172411
-0.220717 0.099785 0.200585
-0.237148 0.132158 0.162281
-0.174938 0.163075 0.417340
-0.177467 0.159575 0.445057
-0.200725 0.143307 0.447603
-0.138085 0.186229 -0.031021
-0.169081 0.168198 -0.027248
-0.219306 0.228638 -0.048255
-0.093089 0.190401 0.207167
-0.117353 0.158441 0.201320
-0.095271 0.209194 0.145650
-0.107320 0.198633 0.171872
-0.168730 0.214002 0.406909
0.009251 0.156464 0.622904
0.008537 0.180774 0.585243
-0.028819 0.173479 0.592164
0.014959 0.169026 0.549834
-0.258760 0.174975 0.659636
-0.247764 0.133921 0.695970
-0.019965 0.045824 0.842967
-0.020466 0.017603 0.886158
-0.042685 0.073058 0.821442
-0.075590 0.056273 0.823282
-0.048268 0.075092 0.781754
-0.075687 0.028273 0.867634
-0.095273 0.000543 0.883655
-0.097060 0.040363 0.840637
0.016613 -0.434666 0.788203
-0.048368 -0.339142 0.913387
0.017202 -0.261913 0.974994
-0.019888 -0.251640 0.977188
-0.043566 -0.246141 0.978381
-0.011633 -0.331903 0.917671
-0.167005 -0.151931 0.905336
-0.202117 -0.134824 0.876018
-0.211090 -0.194642 0.873366
-0.216343 -0.114650 0.878047
-0.217125 -0.066448 0.888367
-0.250883 -0.084934 0.814563
-0.250083 -0.145888 0.804664
-0.226738 -0.117653 0.832569
-0.245210 -0.154560 0.837408
-0.216759 0.248049 0.620312
-0.001514 0.197863 0.514441
-0.027044 0.196824 0.523913
-0.067260 0.190400 0.501977
-0.220068 0.197916 0.406076
-0.275209 0.203024 0.090799
-0.244786 0.224551 0.109161
-0.281888 0.214457 0.010794
-0.228701 0.183474 -0.021441
-0.088319 0.151988 0.364105
-0.111167 0.158983 0.376897
-0.109716 0.167717 0.291140
-0.122707 0.156302 0.341143
-0.112357 0.172587 0.248801
-0.143185 0.162814 0.283041
-0.144698 0.164258 0.235852
-0.138018 0.139761 0.325348
-0.186511 0.044596 0.456083
-0.214552 0.053519 0.432207
-0.188022 0.088399 0.445609
-0.159510 0.090482 0.416900
-0.264689 0.076925 0.560327
-0.278796 0.067020 0.624173
-0.271976 0.081408 0.583488
-0.193994 0.050417 0.409311
-0.212215 -0.019777 0.382617
-0.225677 0.031510 0.375051
-0.203045 0.007306 0.407613
-0.219916 -0.056836 0.396829
-0.216972 -0.037327 0.427561
-0.221431 -0.074231 0.439012
-0.224542 -0.013267 0.464663
-0.243549 -0.175869 0.117881
-0.237053 -0.213974 0.152250
-0.269691 -0.092436 0.162578
-0.254564 -0.133852 0.160149
-0.282560 -0.089344 0.122442
-0.191507 -0.251492 0.061628
-0.205002 -0.268507 0.090636
-0.126728 -0.316097 0.052003
-0.154972 -0.291130 0.055690
-0.158104 -0.284847 0.079406
-0.153932 -0.305457 0.184140
-0.135921 -0.328805 0.133071
-0.178197 -0.295187 0.158039
-0.201289 -0.269256 0.144110
-0.208385 -0.257001 0.167434
-0.178212 -0.288377 0.218654
-0.153179 -0.340236 0.220891
-0.204914 -0.261836 0.199763
-0.187648 -0.261121 0.231719
-0.218057 -0.250076 0.244345
-0.222853 -0.232805 0.198562
-0.122301 -0.404886 0.686562
-0.109987 -0.423779 0.676401
-0.141963 -0.397342 0.633154
-0.110979 -0.415127 0.642752
-0.160458 -0.392363 0.653194
-0.178474 -0.360311 0.571238
-0.164451 -0.384872 0.566866
-0.147145 -0.409227 0.619636
-0.197831 -0.373978 0.603781
-0.113669 -0.418655 0.564410
-0.006383 -0.459578 0.441550
0.014887 -0.429192 0.395794
-0.053176 -0.438645 0.413944
-0.027194 -0.430851 0.347631
0.007648 -0.417306 0.339401
-0.388887 -0.100899 -0.392382
-0.310996 -0.045851 -0.324690
-0.357259 -0.060906 -0.361134
-0.169879 0.070300 -0.439823
-0.032689 0.136581 -0.537824
-0.211150 0.066129 -0.411031
-0.127252 0.168912 -0.509004
-0.003778 0.261557 -0.547135
-0.002471 -0.078343 -0.478914
-0.344186 -0.128172 -0.363975
-0.224975 -0.128011 -0.265767
-0.263669 -0.097268 -0.275592
-0.182636 -0.135532 -0.072047
-0.145518 -0.188173 -0.146159
-0.170794 -0.153792 -0.139340
-0.157493 -0.175911 -0.167110
-0.126684 -0.226983 -0.137890
-0.238268 0.001697 -0.273540
-0.256781 0.052911 -0.261883
-0.248122 0.215801 -0.345393
-0.069524 0.252222 -0.215633
-0.109918 0.240598 -0.204889
-0.094499 0.252743 -0.178584
-0.044585 0.255625 -0.157670
0.002288 0.260041 -0.138092
-0.185005 -0.222998 -0.038276
0.162880 0.200746 -0.056499
0.177160 -0.160592 0.928089
0.143725 -0.155910 0.961020
0.130587 -0.201265 0.952444
0.115997 -0.139459 0.967304
0.099020 -0.113409 0.959165
0.086278 -0.073735 0.938361
0.136952 -0.021677 0.922518
0.097852 -0.093694 0.937218
0.197480 0.188623 0.674304
0.203514 0.163648 0.702201
0.244076 0.226379 0.654171
0.217353 0.188685 0.671710
0.030231 0.192116 0.497193
0.035066 0.167713 0.529959
0.099659 0.186945 0.562250
0.081863 0.174529 0.628338
0.089088 0.175040 0.512573
0.233522 0.213251 0.399294
0.121443 0.196934 0.202643
0.169511 0.154423 0.187409
0.217156 0.176684 -0.027475
0.303185 0.208823 0.098596
0.291138 0.185548 0.124684
0.271775 0.212166 0.127661
0.222258 0.157822 0.207977
0.257008 0.127324 0.181605
0.286261 0.167227 0.152334
0.213658 0.104972 0.473223
0.303188 -0.115512 0.776838
0.316563 -0.132454 0.766301
0.300047 -0.131444 0.776211
0.283240 -0.164960 0.798349
0.310083 -0.181648 0.760243
0.309226 -0.193436 0.716532
0.285101 -0.231807 0.723821
0.326714 -0.155032 0.720548
0.329372 -0.172533 0.690672
0.320017 -0.158764 0.674746
0.246867 -0.026699 -0.019218
0.240487 0.027272 -0.003884
0.248015 -0.019355 -0.005643
0.275281 -0.019501 0.233967
0.261883 -0.033384 0.249148
0.283388 -0.069780 0.251882
0.171091 -0.312229 0.040896
0.185277 -0.281380 0.030045
0.163412 -0.299308 -0.025620
0.169126 -0.303925 0.004295
0.215459 -0.359033 0.437546
0.225603 -0.317398 0.382496
0.113742 -0.339505 0.003302
0.140991 -0.333866 -0.012859
0.143184 -0.342927 0.059861
0.121871 -0.333866 0.029744
0.098179 -0.356065 0.041066
0.469040 -0.141034 -0.433913
0.443768 -0.099757 -0.372447
0.255813 0.019665 -0.378350
0.299154 0.028786 -0.350961
0.325678 -0.016817 -0.301861
0.325423 -0.025258 -0.325670
0.193926 0.040953 -0.459038
0.020838 0.070619 -0.514889
0.062315 0.117594 -0.542897
0.237534 0.163492 -0.452554
0.196399 0.127931 -0.451610
0.201617 0.138700 -0.460069
0.103855 0.262027 -0.552318
0.472926 -0.126468 -0.377496
0.224225 -0.159508 -0.343577
0.226220 -0.139737 -0.270870
0.006977 -0.216644 -0.323151
0.034743 -0.183255 -0.365184
0.027780 -0.176487 -0.399982
0.062970 -0.157079 -0.415836
0.078419 -0.159405 -0.388696
0.102959 0.288110 -0.331506
0.122834 0.289024 -0.368169
0.033127 0.275423 -0.351920
0.033757 0.285169 -0.322794
0.073067 0.289150 -0.345140
0.271915 0.157745 -0.237726
0.247547 0.151101 -0.211565
0.274748 0.114097 -0.252249
0.291934 0.137406 -0.250609
0.241944 0.154245 -0.201629
0.231357 0.199219 -0.243466
0.071032 0.215830 -0.048815
0.030502 0.217079 -0.009680
0.062434 0.231866 -0.046074
0.204891 -0.152545 -0.083573
0.195287 -0.157052 -0.085493
0.215474 -0.163862 -0.056838
0.214396 -0.149991 -0.040761
0.092519 0.252695 -0.191582
0.039059 0.262956 -0.177366
0.119744 0.245480 -0.225271
0.082230 0.272669 -0.206378
0.063109 0.262266 -0.198579
0.287329 0.183039 -0.380319
0.255524 0.207334 -0.387457
0.290068 0.049962 -0.272431
0.288134 0.019068 -0.271531
0.211486 -0.120308 -0.146035
0.212132 -0.149523 -0.132014
0.190834 -0.196020 -0.132027
0.296794 -0.088130 -0.300979
0.267868 -0.089030 -0.275825
0.305120 -0.136332 -0.449862
0.283347 -0.150288 -0.404423
0.321965 -0.135565 -0.416551
0.350992 -0.133901 -0.385559
0.057859 -0.136193 -0.459118
0.031431 -0.109369 -0.473765
0.094926 0.284686 -0.492888
0.043420 0.291567 -0.469475
0.038914 0.276746 -0.417806
0.034042 0.231374 -0.567014
0.066612 0.247815 -0.575067
0.185129 0.171197 -0.494748
0.241910 0.001789 -0.414442
0.225354 0.032210 -0.420387
0.106222 0.143508 -0.520142
0.226908 -0.058648 -0.413445
0.366584 -0.032040 -0.319299
0.070832 -0.439683 0.649893
0.037065 -0.451662 0.658677
0.060129 -0.452475 0.631354
0.031908 -0.467286 0.585688
0.043047 -0.453547 0.615020
0.076413 -0.450640 0.570742
0.224284 -0.380186 0.530721
0.230010 -0.322915 0.487548
0.211603 -0.380523 0.495611
0.197623 -0.359200 0.464056
0.218173 -0.352985 0.468980
0.247901 -0.270071 0.458805
0.275712 -0.244681 0.506516
0.256853 -0.265540 0.468766
0.264141 -0.279252 0.473200
0.300498 -0.215026 0.669376
0.315367 -0.252701 0.643115
0.306817 -0.198003 0.597363
0.325564 -0.199065 0.629479
0.308763 -0.230512 0.589569
0.297859 -0.094985 0.520307
0.313336 -0.132325 0.564785
0.336396 -0.112161 0.594142
0.332687 -0.151583 0.581069
0.254800 -0.077387 -0.007332
0.260852 -0.074907 0.385500
0.276743 -0.095503 0.390555
0.260865 -0.018006 0.374554
0.237459 -0.021887 0.463109
0.244591 0.027456 0.446455
0.250507 -0.021805 0.425657
0.252158 -0.038390 0.449217
0.300533 0.043481 0.573710
0.292814 0.077168 0.573246
0.312902 0.124751 0.587912
0.286566 0.095029 0.626832
0.292813 0.135787 0.151814
0.256277 0.097143 0.172838
0.239987 0.131459 0.204392
0.301259 0.054747 0.171046
0.300395 0.059936 0.137408
0.289065 0.101516 0.169926
0.198283 0.135019 0.454692
0.212921 0.139792 0.447557
0.251320 0.145444 0.461831
0.172792 0.120742 -0.029623
0.263761 0.185204 -0.026602
0.291802 0.228459 -0.051975
0.138384 0.215318 0.122568
0.164027 0.200723 0.150716
0.226304 0.213965 0.134447
0.206150 0.200477 0.160968
0.181480 0.240692 0.123651
0.189635 0.174653 0.443237
0.168291 0.133640 0.738966
0.143782 0.151491 0.698217
0.167101 0.163525 0.687631
0.221554 0.246432 0.627236
0.186228 0.203630 0.653950
0.066372 -0.401033 0.848370
0.112925 -0.369909 0.874825
0.194266 -0.323803 0.824753
0.190525 -0.306732 0.856691
0.176882 -0.351098 0.842855
0.123977 -0.345671 0.856314
0.174483 -0.298731 0.874369
0.099933 -0.253544 0.969090
0.110644 -0.287462 0.955695
-0.193006 -0.081018 -0.044877
-0.181771 -0.126430 -0.036840
-0.188099 -0.029903 -0.029928
-0.190928 -0.104610 -0.068932
-0.172254 -0.067663 -0.106495
0.000141 -0.228112 -0.300413
-0.010618 -0.260874 -0.266360
-0.014709 -0.257554 -0.235107
-0.048583 -0.246947 -0.270505
-0.216564 0.225995 -0.313009
-0.103024 0.277024 -0.437000
-0.176888 -0.125087 -0.154070
-0.171955 -0.111586 -0.179646
-0.276619 -0.014935 -0.296934
-0.252338 -0.043761 -0.268188
-0.356161 -0.101917 -0.321991
-0.400333 -0.121111 -0.448312
-0.028735 0.286787 -0.518347
-0.256312 0.112683 -0.354401
-0.244372 0.044203 -0.342098
-0.286351 -0.015012 -0.331312
-0.129292 -0.303238 -0.020453
-0.114715 -0.334519 -0.002017
-0.086561 -0.314580 -0.026590
-0.062248 -0.360967 0.013625
-0.061505 -0.382347 0.059306
-0.103182 -0.350725 0.032861
