-0.260305 0.163328 0.109618
-0.256882 0.172422 0.030182
-0.214548 0.050999 0.510865
-0.132060 -0.390429 0.753089
-0.074781 -0.410979 0.751506
-0.066759 -0.422578 0.722685
-0.166111 -0.322816 0.804795
-0.166811 -0.345210 0.753460
-0.237873 -0.136249 0.206526
-0.222620 -0.164647 0.259405
-0.074914 -0.399195 0.351135
-0.120694 -0.378859 0.387281
-0.142313 -0.362594 0.401019
-0.151493 -0.359497 0.429137
0.020163 -0.394547 0.113868
0.005388 -0.396383 0.140329
-0.235281 -0.029683 -0.350272
-0.109955 0.051749 -0.474952
0.010791 0.009853 -0.491338
-0.210803 0.117636 -0.415467
-0.334588 -0.114819 -0.461566
-0.258910 -0.094432 -0.471996
-0.219890 -0.153569 -0.353812
-0.115915 -0.218101 -0.137923
-0.192362 -0.061284 -0.197992
-0.107190 0.278677 -0.396788
-0.135694 0.273429 -0.384085
-0.220981 0.219405 -0.299241
-0.207150 0.075779 -0.158040
0.089488 -0.027438 0.924160
0.093456 0.161621 0.667693
0.073053 0.100224 0.778349
0.034192 0.095475 0.780637
0.300109 0.215627 0.112043
0.312549 0.214859 0.085847
0.196017 0.126006 0.362020
0.240841 0.101169 0.256655
0.216133 0.101248 0.379862
0.222643 0.097792 0.342693
0.108495 -0.423297 0.739441
0.046042 -0.438019 0.748717
0.268889 0.003254 0.303568
0.259046 0.043945 0.264149
0.228464 -0.232460 0.019688
0.248325 -0.248163 0.406101
0.109029 -0.395010 0.280453
0.140050 -0.382193 0.284619
0.083770 -0.345396 -0.019739
0.034994 -0.378106 0.037550
0.127330 0.232259 -0.566647
0.147613 0.204387 -0.520522
0.142767 -0.026095 -0.479499
0.295919 0.119399 -0.265091
0.248123 0.235705 -0.410510
0.216904 0.248509 -0.258327
0.190175 0.185263 -0.133240
0.132354 -0.307089 -0.043151
0.102437 -0.276447 -0.148617
0.219324 0.091290 -0.081664
0.213084 0.119090 -0.089360
0.092515 -0.190408 -0.298300
0.147606 -0.180658 -0.269077
0.149963 -0.155320 -0.353696
0.414401 -0.132203 -0.360679
0.262493 0.096830 -0.363235
0.066102 0.140562 -0.539878
0.421433 -0.080473 -0.341706
0.110705 -0.412918 0.382610
0.041852 -0.430436 0.403567
0.227549 -0.362522 0.567579
0.151367 -0.413412 0.652248
0.216131 -0.246050 0.227082
0.209500 -0.252341 0.188458
0.220523 -0.276498 0.176709
0.208929 -0.281742 0.084131
0.262355 -0.210086 0.193761
0.295823 -0.114181 0.183225
0.227878 -0.335424 0.752384
0.221913 -0.351079 0.717586
0.137574 -0.403993 0.753641
0.205671 0.111654 0.418362
0.172532 0.166936 0.270288
0.185185 0.163920 0.242877
0.166864 0.159561 0.348399
0.145736 0.171583 0.362765
0.190214 0.206324 -0.061249
0.087261 0.213879 0.263032
0.050125 0.210321 0.351608
0.263361 0.072953 0.734177
0.269421 0.106259 0.744538
0.234407 -0.002171 0.863336
0.183434 0.070662 0.815459
0.155935 0.069031 0.828568
0.240894 -0.305305 0.706758
0.276998 -0.225559 0.810067
0.259309 -0.259698 0.811511
-0.086620 -0.257629 -0.122901
-0.064731 -0.317570 -0.068967
-0.090731 -0.296322 -0.049904
-0.135195 0.259305 -0.268379
-0.156932 0.243494 -0.228919
-0.157732 0.220527 -0.193719
-0.188272 0.207479 -0.212434
-0.175818 0.243164 -0.427913
-0.249322 0.102923 -0.316535
-0.175389 -0.098659 -0.224237
-0.267688 -0.141043 -0.348092
-0.100295 -0.039020 -0.469267
-0.084400 0.144496 -0.486161
-0.300929 -0.063825 -0.358822
-0.069620 -0.388441 0.260027
-0.127327 -0.356394 0.294808
-0.193759 -0.265491 0.360014
-0.149109 -0.265356 0.002104
-0.247320 -0.127571 0.081585
-0.201417 0.049028 0.320590
-0.198596 0.048010 0.354622
-0.177080 0.099368 0.326557
-0.187503 0.076760 0.341616
-0.192024 0.102020 0.253825
-0.179888 0.106990 0.285228
-0.185031 0.121966 0.229522
-0.116699 0.164178 0.448511
-0.109624 0.159741 0.399387
-0.083832 0.175817 0.385549
-0.030920 0.205571 0.330734
-0.003294 0.216850 0.256952
-0.210698 0.063465 0.763254
-0.230219 0.100792 0.736243
-0.110181 0.045833 0.829896
-0.168030 0.034034 0.842981
-0.179219 -0.300339 0.816881
-0.205353 -0.266687 0.811683
-0.206397 -0.289551 0.779208
-0.235692 -0.278241 0.708798
-0.249783 -0.261632 0.658446
-0.124475 -0.202709 0.946023
-0.153412 -0.274398 0.879132
-0.156849 -0.308449 0.842296
-0.169626 -0.235351 0.900724
-0.205115 0.132267 0.740822
-0.104612 0.234490 0.496317
-0.066850 0.201417 0.498704
-0.032633 0.227807 0.089555
-0.014748 0.233964 0.037824
-0.204433 0.162826 -0.018539
-0.267298 0.151494 0.529459
-0.246836 0.055405 0.721447
-0.244823 -0.059061 0.209269
-0.227664 -0.125914 0.292164
-0.214391 -0.203738 0.354090
-0.225423 -0.155931 0.340029
-0.215074 -0.231169 0.070280
-0.258837 -0.245613 0.640558
-0.249160 -0.265949 0.615965
-0.236303 -0.294903 0.605829
-0.216400 -0.321561 0.605749
-0.205645 -0.332476 0.579378
-0.056092 -0.434374 0.517166
-0.363314 -0.079799 -0.364938
-0.062569 0.090081 -0.474895
-0.236314 0.176586 -0.398069
-0.123034 -0.096385 -0.427435
-0.337386 -0.089069 -0.323923
-0.200106 -0.090980 -0.244866
0.010664 0.291739 -0.285032
-0.035464 0.290241 -0.279473
-0.091899 0.276279 -0.244428
-0.182525 -0.014327 -0.134097
-0.080197 0.213845 -0.085000
0.156265 0.234677 0.572805
0.123793 -0.245181 0.965691
0.141403 -0.209590 0.966660
0.248259 -0.212449 0.839791
0.218156 -0.191578 0.884678
0.191783 -0.289792 0.880624
0.175952 0.145354 0.733573
0.112071 0.212963 0.493409
0.104022 0.220056 -0.009773
0.055437 0.226264 0.028000
0.069630 0.226187 0.078110
0.318952 0.188263 0.595934
0.332311 -0.105011 0.603814
0.313191 0.017677 0.601457
0.275718 -0.140013 0.420224
0.272098 -0.175933 0.371839
0.221072 -0.291944 0.276801
0.168641 -0.331314 0.095613
0.117593 -0.377166 0.168910
0.251233 -0.065258 -0.424304
0.089130 0.094512 -0.473131
0.092263 -0.030434 -0.489339
0.396805 -0.131752 -0.391721
0.178934 0.248369 -0.402542
0.268083 0.199377 -0.245582
0.055883 -0.341800 -0.051754
0.038506 -0.295337 -0.162839
0.229455 -0.072392 -0.046643
0.137066 0.222673 -0.109770
0.179472 0.174546 -0.086396
0.074996 0.280604 -0.221257
0.097361 0.285253 -0.249903
0.189805 -0.149892 -0.241309
0.376808 -0.103447 -0.314525
0.188773 -0.119007 -0.415461
0.257952 -0.111137 -0.448731
0.084435 0.269153 -0.544190
0.283394 0.180252 -0.403768
0.268015 0.141276 -0.422209
0.354580 -0.068422 -0.363652
0.104081 -0.431392 0.478495
0.032389 -0.454237 0.553060
0.058983 -0.448884 0.525801
0.251997 -0.330800 0.667573
0.256180 -0.329032 0.614348
0.290169 -0.275260 0.592969
0.277288 -0.150879 0.277318
0.269648 -0.177395 0.255210
0.299212 -0.018079 0.196210
0.314306 0.135072 0.575835
0.322051 0.172615 0.506623
0.223027 0.149940 -0.041549
0.315607 0.206961 0.014777
0.110160 0.217123 0.133081
0.083602 0.221711 0.144505
0.047716 0.222813 0.213840
0.065770 0.222552 0.187050
0.330156 0.177997 0.460032
0.290848 0.182516 0.673660
0.284938 -0.089459 0.836761
0.244519 -0.085642 0.860591
0.238463 -0.154037 0.897104
0.196254 0.252527 -0.468912
-0.152692 -0.179181 -0.071024
-0.174374 -0.004103 -0.085602
-0.152838 0.118466 -0.051057
-0.240516 0.187054 -0.331740
-0.249934 0.146190 -0.336892
-0.324382 -0.133679 -0.413864
-0.300821 -0.138242 -0.406194
-0.035732 0.288201 -0.482280
-0.188368 0.054706 -0.424507
-0.202200 0.001493 -0.379651
-0.357870 -0.063978 -0.356876
-0.000261 -0.454760 0.632547
0.022365 -0.457423 0.602182
-0.193718 -0.292578 0.456059
-0.204316 -0.304348 0.502032
-0.206098 -0.318818 0.532479
-0.272777 -0.149692 0.564674
-0.278622 -0.176722 0.629050
-0.310750 -0.155195 0.663701
-0.290585 0.015260 0.605391
-0.272550 -0.109313 0.547094
-0.276763 -0.087832 0.576291
-0.280198 -0.068947 0.600867
-0.250274 0.106110 0.156184
-0.215924 0.091113 0.216966
-0.127094 0.184369 0.186383
-0.141797 0.165380 0.215299
-0.048817 0.189727 0.587037
-0.227241 0.178622 0.689263
-0.212866 0.153836 0.721566
-0.246086 0.152125 0.683445
-0.036490 0.023077 0.882428
-0.013119 0.081417 0.805795
-0.076859 -0.290403 0.943530
0.010542 -0.331366 0.941157
-0.211912 -0.139766 0.868877
-0.221165 -0.170421 0.846730
-0.206114 -0.055685 0.869949
-0.044961 0.197209 0.558501
-0.212547 0.235410 0.134293
-0.273587 0.237376 0.025753
-0.222522 0.201451 -0.031153
-0.134007 0.141210 0.362900
-0.113939 0.175501 0.235244
-0.162560 0.104828 0.425056
-0.181794 0.074483 0.410790
-0.282739 0.041955 0.594189
-0.199922 0.041482 0.458087
-0.201806 0.026499 0.457363
-0.251920 -0.082261 0.395102
-0.257397 -0.117506 0.114666
-0.241234 -0.176150 0.168252
-0.197780 -0.237266 0.122429
-0.133554 -0.319233 0.118307
-0.135981 -0.336341 0.089679
-0.153881 -0.293588 0.107331
-0.185487 -0.261337 0.182778
-0.093811 -0.419310 0.592314
-0.140076 -0.390081 0.639223
-0.182069 -0.358809 0.624793
0.013803 -0.425195 0.376023
-0.070010 -0.421881 0.414797
-0.050091 -0.415140 0.386344
0.014713 0.129684 -0.539292
-0.029324 -0.085572 -0.469600
-0.083288 -0.084666 -0.461264
-0.217189 -0.115474 -0.263221
-0.137625 -0.194177 -0.099668
-0.151832 -0.140687 -0.143609
-0.247764 0.053018 -0.288666
-0.236366 0.192599 -0.363924
-0.017700 0.273048 -0.193998
0.085069 -0.206037 0.976287
0.062346 -0.089149 0.954689
0.236784 0.171112 0.709620
0.240587 0.149499 0.729276
0.083390 0.189052 0.517843
0.134203 0.205766 0.125269
0.256738 0.227641 -0.048380
0.303522 0.164675 0.129219
0.228035 0.167158 0.166164
0.246702 0.057494 0.495558
0.335172 -0.109263 0.697937
0.325482 -0.110321 0.741533
0.301724 -0.196116 0.772029
0.241159 0.087400 -0.001685
0.247785 0.055138 0.000392
0.289271 -0.041097 0.218309
0.213569 -0.261292 0.030468
0.236034 -0.239029 0.049926
0.231698 -0.298928 0.415907
0.122155 -0.343423 0.027143
0.097599 -0.353911 0.016995
0.305577 0.041318 -0.317432
0.322505 0.019390 -0.308552
0.060639 -0.189028 -0.336322
0.063488 -0.162955 -0.391423
0.065549 0.291751 -0.330782
0.285781 0.165894 -0.248639
0.283839 0.119396 -0.217832
0.204233 0.218526 -0.189998
0.101890 0.226406 -0.063732
0.040274 0.242163 -0.040591
0.046413 0.260209 -0.138458
0.142873 0.246764 -0.173279
0.139728 0.261812 -0.202431
0.249978 -0.113897 -0.264860
0.093191 -0.103196 -0.452461
0.258159 0.019636 -0.380352
0.205385 -0.053884 -0.424176
0.093277 -0.444074 0.633964
0.243523 -0.303520 0.534129
0.250439 -0.306790 0.478334
0.203027 -0.323190 0.450945
0.335531 -0.145389 0.630389
0.337961 -0.128135 0.657641
0.333849 -0.161460 0.666144
0.311559 -0.193252 0.537452
0.320042 -0.162637 0.516781
0.325259 -0.199494 0.574563
0.247910 -0.072876 0.411273
0.252811 0.025756 0.390316
0.250197 0.023640 0.397049
0.310790 0.060349 0.623887
0.305442 0.107281 0.559495
0.271247 0.076260 0.219840
0.264506 0.052910 0.243178
0.287742 0.080332 0.192037
0.240678 0.184623 0.425229
0.165873 0.242259 0.116830
0.197355 0.195838 0.173770
0.122625 0.179290 0.645676
0.248639 0.257508 0.622767
0.125461 -0.331211 0.898713
0.132280 -0.380835 0.817746
-0.175901 -0.136428 -0.043449
-0.165344 -0.103465 -0.098941
-0.176306 -0.025255 -0.066229
-0.019528 -0.215045 -0.303932
0.005154 -0.284580 -0.182524
-0.197071 0.246589 -0.351855
-0.148526 -0.146420 -0.188130
-0.241957 -0.023177 -0.253972
-0.055957 0.246890 -0.568481
-0.147814 0.209069 -0.505367
-0.017240 0.122178 -0.523337
0.008524 0.077004 -0.502740
-0.233749 0.010600 -0.350399
-0.400225 -0.098988 -0.376402
-0.112905 -0.315933 0.020590
-0.073731 -0.333248 -0.006155
-0.187168 -0.284694 0.398892
-0.182974 -0.184964 -0.011167
-0.195784 0.000180 -0.003762
-0.259553 -0.195672 0.748273
-0.267213 -0.198487 0.711657
-0.278450 -0.092154 0.732103
-0.180238 0.164676 0.198523
-0.196081 0.186389 0.169915
-0.239478 0.187236 0.132854
-0.258752 0.201224 0.101042
-0.234961 0.230639 -0.043307
-0.091146 0.219037 0.129931
-0.145672 0.165730 0.419839
-0.126848 0.177634 0.695918
-0.111648 -0.336245 0.856967
-0.128767 -0.343104 0.825852
-0.101012 -0.361153 0.831605
-0.005148 -0.287289 0.968270
0.006487 -0.193820 0.975584
0.022469 -0.151828 0.969035
-0.038809 -0.154376 0.972467
-0.035069 -0.188249 0.976867
-0.111886 -0.026871 0.918718
-0.141336 -0.039973 0.916317
-0.115086 -0.070017 0.939221
-0.143556 -0.069330 0.928020
-0.153581 -0.198991 0.931287
-0.133102 -0.156244 0.946927
-0.166263 -0.138736 0.922382
-0.137143 -0.115603 0.941536
-0.249521 0.259967 0.582819
-0.253670 0.211216 0.614740
-0.262198 0.203308 0.421032
-0.084805 0.227788 0.044007
-0.094605 0.231225 0.007693
-0.101215 0.240197 0.075609
-0.225158 0.167806 0.440775
-0.225663 0.141900 0.469140
-0.236915 0.122675 0.497718
-0.256918 0.160383 0.478063
-0.260483 0.113768 0.131338
-0.263585 0.136388 0.601492
-0.260816 0.122457 0.635352
-0.252480 0.105622 0.688024
-0.209168 0.013141 0.485652
-0.227355 -0.004773 0.504845
-0.284574 -0.107143 0.512520
-0.255076 -0.069770 0.519718
-0.242652 -0.032768 0.515290
-0.260052 -0.037642 0.164408
-0.252291 -0.021394 0.190646
-0.233506 -0.096500 0.458804
-0.235853 -0.152493 0.458889
-0.226846 -0.194860 0.456223
-0.247159 -0.206170 0.507978
-0.258401 -0.163977 0.518013
-0.205544 -0.178723 0.017840
-0.198367 -0.209122 0.033545
-0.085907 -0.448945 0.559269
-0.126042 -0.401622 0.552595
-0.090251 -0.419103 0.523625
-0.130532 -0.396522 0.495610
-0.119249 -0.397101 0.462182
-0.026490 -0.410947 0.298481
-0.025902 -0.410278 0.321182
-0.075087 -0.392735 0.232485
-0.281494 -0.079139 -0.449539
-0.296776 -0.075795 -0.422004
-0.189896 -0.033388 -0.381179
-0.083824 0.118401 -0.469615
-0.142928 0.030640 -0.465749
-0.132782 -0.000820 -0.463581
-0.134724 -0.036505 -0.449685
-0.170737 0.017322 -0.428900
-0.168989 -0.039006 -0.402053
-0.156848 0.126110 -0.446558
-0.184119 0.138093 -0.441894
-0.159693 0.166335 -0.465544
-0.004068 0.189324 -0.594355
-0.081777 0.258112 -0.546241
-0.109706 0.235600 -0.503745
-0.426467 -0.126036 -0.378085
-0.355443 -0.131184 -0.368457
-0.382305 -0.131239 -0.377446
-0.216597 -0.148943 -0.331153
-0.175177 -0.148923 -0.299055
-0.146154 -0.158811 -0.306155
0.001688 -0.150492 -0.409370
0.006465 -0.204580 -0.369791
-0.026480 -0.185209 -0.350553
-0.035192 -0.146687 -0.427152
-0.262615 0.004075 -0.269973
-0.071024 0.289616 -0.362236
-0.045102 0.293365 -0.338943
0.020130 0.295814 -0.343214
-0.014820 0.294414 -0.328604
-0.241474 0.131196 -0.187193
-0.219807 0.159411 -0.214784
-0.263071 0.149231 -0.251299
-0.243781 0.111759 -0.254677
-0.207023 0.113095 -0.162600
-0.180337 0.168453 -0.157544
-0.175604 0.146872 -0.135586
0.014859 0.244093 -0.060714
-0.055217 0.197948 -0.063024
0.009182 0.215281 -0.029929
0.151089 0.229140 -0.011135
0.053237 -0.128990 0.965387
0.073912 -0.153030 0.970498
0.038711 -0.201558 0.948865
0.078210 -0.182399 0.975405
0.214059 -0.061538 0.908774
0.163482 -0.048125 0.928073
0.191566 -0.037989 0.912029
0.142075 -0.124145 0.960159
0.160347 -0.103452 0.949835
0.174011 -0.167128 0.950712
0.301482 0.226710 0.612122
0.289353 0.258289 0.602124
0.318314 0.206101 0.424356
0.154234 0.200862 0.452175
0.121868 0.221036 0.036144
0.147227 0.238333 0.051141
0.145921 0.174984 -0.029677
0.316630 0.192763 0.040319
0.310907 0.162509 0.096797
0.262511 0.076606 0.515876
0.286613 0.079140 0.540350
0.290640 0.047807 0.553360
0.316048 -0.071005 0.765091
0.309663 -0.041444 0.764939
0.332501 -0.075059 0.700478
0.308090 0.049722 0.686691
0.318766 0.026643 0.658040
0.322404 -0.000002 0.673433
0.313342 0.020918 0.696679
0.314088 -0.034761 0.118628
0.311009 -0.061769 0.103740
0.306040 -0.043405 0.079980
0.272527 -0.035110 0.056244
0.296085 0.057251 0.050690
0.311147 0.051333 0.113611
0.306194 0.064874 0.083460
0.282807 -0.140171 0.224623
0.276060 -0.169874 0.217467
0.286424 -0.080715 0.231784
0.262855 -0.200382 0.056667
0.190059 -0.373353 0.444526
0.135853 -0.396713 0.427534
0.144235 -0.409417 0.448602
0.122034 -0.401618 0.349543
0.141831 -0.400962 0.391458
0.162560 -0.385098 0.373984
0.087008 -0.393315 0.208431
0.086915 -0.390174 0.178396
0.070875 -0.392080 0.146720
0.057655 -0.399503 0.187063
0.056215 -0.387157 0.083174
0.069121 -0.387085 0.111698
0.369076 -0.076213 -0.408643
0.249998 -0.016235 -0.375891
0.306328 -0.052209 -0.342189
0.275513 -0.023289 -0.380681
0.147404 0.053694 -0.477747
0.239871 0.109368 -0.426456
0.233923 0.135096 -0.441421
0.089050 0.227443 -0.587776
0.331435 -0.093132 -0.468392
0.328369 -0.121578 -0.456370
0.183754 -0.158911 -0.344876
0.205867 -0.148320 -0.388052
0.281764 -0.148284 -0.344923
0.221695 -0.155273 -0.357951
0.213049 -0.153412 -0.330673
0.270853 -0.149882 -0.380097
0.205475 -0.156805 -0.318844
0.144174 -0.078295 -0.449892
0.148207 -0.132149 -0.392825
0.107996 0.288350 -0.397488
0.082798 0.291964 -0.376735
0.020889 0.297466 -0.400171
0.048467 0.294638 -0.369820
0.289860 0.084474 -0.263607
0.276711 0.093314 -0.202100
0.254501 -0.002658 -0.173841
0.245828 0.032106 -0.142598
0.245941 0.060689 -0.137228
0.258228 0.078239 -0.163122
0.101939 0.237871 -0.101976
0.181627 -0.259112 -0.040636
0.174755 -0.218597 -0.115205
0.175264 -0.240918 -0.081467
0.193733 -0.204275 -0.084361
0.241643 -0.116469 -0.022897
0.227952 -0.000493 -0.068436
0.227265 -0.042551 -0.068023
0.198787 -0.093667 -0.067411
0.220661 -0.082474 -0.102724
0.199935 -0.053219 -0.101326
0.027301 -0.277679 -0.202626
0.032866 -0.259332 -0.238172
0.055641 -0.273850 -0.202057
0.068228 -0.259007 -0.268976
0.068490 -0.217825 -0.298033
0.078788 -0.257201 -0.214394
0.250901 0.220048 -0.335610
0.260002 0.235557 -0.312519
0.207272 -0.131597 -0.210347
0.319707 -0.031885 -0.273096
0.357643 -0.094564 -0.290189
0.389430 -0.057131 -0.292798
0.428984 -0.079602 -0.306839
0.425832 -0.107114 -0.449884
0.023445 0.291533 -0.500404
0.198845 0.208172 -0.480239
0.298275 0.130130 -0.388765
0.285476 0.122688 -0.391061
0.194426 -0.020956 -0.438347
0.164599 0.021220 -0.464153
0.212240 0.015539 -0.438387
0.131164 0.144259 -0.487619
0.231854 -0.039517 -0.387051
0.259623 -0.072382 -0.370260
0.106605 -0.426465 0.315054
0.084613 -0.403653 0.294222
0.064112 -0.404706 0.260381
0.080935 -0.398022 0.237860
0.206228 -0.377739 0.547337
0.176934 -0.396199 0.510248
0.164343 -0.408343 0.544709
0.177756 -0.389027 0.473083
0.249140 -0.189001 -0.011669
0.275208 -0.199290 0.450687
0.274267 -0.171062 0.436724
0.282146 -0.128441 0.446890
0.312803 -0.105715 0.522537
0.297911 -0.132831 0.488080
0.302657 -0.181024 0.505599
0.313812 -0.046784 0.148222
0.310613 -0.007777 0.160169
0.315528 0.012113 0.132981
0.312070 0.049221 0.142719
0.288569 -0.102700 0.467386
0.277121 -0.101058 0.456856
0.259916 0.007852 0.485233
0.274877 -0.019717 0.494038
0.281945 0.022778 0.536343
0.282728 -0.004015 0.521627
0.296575 -0.037356 0.527498
0.306618 0.091889 0.666843
0.313322 0.132594 0.613964
0.284862 0.139758 0.644149
0.294561 0.086514 0.046904
0.308576 0.126280 0.127587
0.308723 0.111645 0.102239
0.311117 0.083456 0.117296
0.284502 0.142537 0.474648
0.190359 0.235632 -0.043895
0.055992 0.208382 0.399124
0.036522 0.204664 0.460113
0.093454 0.189012 0.473448
0.103638 0.189195 0.415040
0.185364 0.186769 0.683800
0.196495 0.212566 0.653601
0.043351 0.080433 0.805280
0.069426 0.071455 0.796572
0.045040 0.061113 0.834506
0.058182 0.056001 0.845063
0.055858 0.042847 0.858080
0.121582 0.022469 0.883579
0.130198 -0.006160 0.910168
0.121029 0.047348 0.856439
0.151868 0.048905 0.855221
0.124863 0.067568 0.831499
0.012291 -0.388259 0.862262
0.032027 -0.403251 0.835893
0.095339 -0.403773 0.808757
0.088598 -0.381583 0.853922
0.059480 -0.396025 0.842786
-0.159811 0.081274 -0.017833
-0.085936 0.242925 -0.133179
-0.053159 0.234999 -0.099692
-0.188653 0.046455 -0.126365
-0.212797 0.119405 -0.135473
-0.224499 0.026691 -0.214420
-0.213150 0.014192 -0.188930
-0.221708 0.098387 -0.188400
-0.238079 0.086118 -0.233673
-0.048218 0.287648 -0.456249
-0.069821 0.287126 -0.396390
0.004327 0.296456 -0.374921
-0.026358 0.295037 -0.367509
-0.132311 -0.186213 -0.223994
-0.049910 -0.163751 -0.371347
-0.069277 -0.143821 -0.388333
-0.247004 -0.132598 -0.314807
-0.218766 -0.135193 -0.301838
-0.342064 -0.129384 -0.425244
-0.370293 -0.119987 -0.440019
-0.386175 -0.126919 -0.411625
-0.039135 0.227399 -0.587703
-0.182967 0.190285 -0.458427
-0.001020 -0.038899 -0.484852
-0.041342 -0.031730 -0.488509
-0.058030 0.029161 -0.491218
-0.029998 0.096945 -0.502637
-0.191961 -0.056917 -0.401847
-0.170468 -0.060707 -0.457046
-0.257021 -0.071223 -0.415700
-0.407098 -0.102387 -0.407588
-0.348364 -0.086190 -0.439910
-0.049780 -0.409541 0.157610
-0.067069 -0.379272 0.181334
-0.083705 -0.376862 0.223650
-0.118183 -0.348804 0.211375
-0.139175 -0.327920 0.059656
-0.111367 -0.339527 0.117559
-0.073169 -0.359177 0.070502
-0.136988 -0.336508 0.242201
-0.170846 -0.290355 0.242863
-0.153770 -0.320423 0.275693
-0.175781 -0.288977 0.274000
-0.148283 -0.335918 0.307899
-0.207104 -0.231879 0.356011
-0.187899 -0.269655 0.307284
-0.180828 -0.294949 0.345783
-0.200196 -0.244312 0.318644
-0.220565 -0.176894 0.369682
-0.221308 -0.164583 0.396007
-0.212851 -0.201876 0.409294
-0.223955 -0.143223 0.418539
-0.224811 -0.134745 0.420769
-0.243178 -0.049669 0.042239
-0.246882 -0.007410 0.048481
-0.257502 0.010168 0.072926
-0.258591 -0.077338 0.085831
-0.262864 0.057878 0.124450
-0.261873 0.003279 0.097282
-0.259355 0.059842 0.085686
-0.286244 -0.073458 0.676324
-0.281419 -0.042612 0.677899
-0.307766 -0.076861 0.708712
-0.268877 -0.070168 0.754931
-0.268563 -0.044349 0.739914
-0.243110 0.026885 0.751978
-0.265336 -0.005350 0.724038
-0.261760 0.183299 0.605037
-0.286251 0.157383 0.623826
-0.187386 0.105997 -0.003685
-0.218976 0.090413 0.014625
-0.149211 0.141579 -0.020912
0.002120 0.222240 0.199685
0.015268 0.222637 0.228744
-0.048941 0.217569 0.211305
-0.041006 0.221075 0.132903
-0.074569 0.200190 0.218159
-0.152555 0.224332 0.409012
-0.289702 0.215643 0.465056
-0.270767 0.193497 0.424012
-0.138866 0.197121 0.677592
-0.108527 0.189930 0.662947
-0.193325 -0.026832 0.870840
-0.214744 -0.007291 0.827756
-0.206308 0.035889 0.803100
-0.246305 -0.022277 0.781034
0.027595 -0.010630 0.908784
-0.010448 -0.032047 0.901872
-0.020906 -0.008857 0.910934
-0.084965 -0.005667 0.912758
-0.064510 -0.023393 0.923631
-0.061543 -0.176125 0.975619
-0.091889 -0.180482 0.966214
0.070010 -0.254964 0.980071
0.054080 -0.227131 0.978959
-0.148326 0.256417 -0.434661
-0.087020 -0.097762 0.930082
-0.057031 -0.101854 0.959694
-0.040627 -0.068639 0.947978
-0.216025 0.202525 0.676392
-0.185279 0.172518 0.713539
0.009268 0.126135 0.731638
-0.007761 0.102288 0.773650
-0.015469 0.119867 0.720857
0.020036 0.157143 0.667622
-0.000999 0.143378 0.702363
-0.046510 0.181361 0.632618
-0.042510 0.164453 0.668741
-0.068826 0.148691 0.708585
-0.083752 0.137180 0.731178
-0.229752 0.190422 0.416387
0.025517 0.212912 0.411431
-0.063969 0.171121 0.408494
-0.018992 0.207760 0.382423
-0.036206 0.196285 0.469758
-0.059208 0.186955 0.446582
-0.131591 0.228211 -0.040442
-0.166016 0.234789 -0.074864
-0.111048 0.177734 -0.050090
-0.263441 0.163854 0.063100
-0.248934 0.136764 0.046969
-0.199161 0.078153 0.497499
-0.233581 0.042963 0.537731
-0.241105 0.074349 0.546805
-0.225274 0.082742 0.520620
-0.086577 -0.382786 0.810052
-0.055790 -0.404361 0.800681
-0.086047 -0.394684 0.779193
-0.135181 -0.353345 0.794116
-0.116765 -0.374281 0.781294
-0.175708 -0.353970 0.697851
-0.137205 -0.374261 0.734824
-0.131561 -0.387494 0.702452
-0.097018 -0.402317 0.728612
-0.232068 -0.164294 0.194052
-0.221273 -0.198500 0.183381
-0.227551 -0.159361 0.225447
-0.212797 -0.207433 0.243156
-0.231362 -0.085397 0.263729
-0.229968 -0.133248 0.247953
-0.232951 -0.126629 0.240038
-0.221360 -0.160112 0.035327
-0.098662 -0.403753 0.436952
-0.086817 -0.403889 0.407049
-0.126242 -0.383950 0.432777
-0.100303 -0.390065 0.365895
0.003956 -0.402505 0.202858
-0.005966 -0.398169 0.170386
-0.035627 -0.392396 0.188427
-0.024483 -0.398461 0.214174
-0.023948 -0.383730 0.068778
-0.022543 -0.388666 0.124439
0.014504 -0.389197 0.080829
-0.308838 -0.074532 -0.392880
-0.261670 -0.036966 -0.340611
0.024596 0.048699 -0.493474
-0.018619 0.024690 -0.492535
-0.036011 0.058327 -0.494649
-0.092846 0.171559 -0.500362
-0.096771 0.257705 -0.476979
-0.079063 0.238876 -0.497935
-0.223715 -0.114507 -0.455550
-0.272587 -0.119601 -0.457302
-0.305861 -0.139183 -0.463470
-0.170799 -0.143376 -0.400655
-0.211895 -0.138762 -0.427547
-0.166098 -0.153989 -0.364376
-0.202850 -0.149417 -0.413590
-0.135345 -0.160609 -0.333361
-0.109539 -0.202873 -0.190195
-0.223637 -0.082006 -0.247744
-0.203058 -0.034037 -0.199511
-0.220008 -0.037488 -0.225858
-0.158175 0.261354 -0.400723
-0.181768 0.252967 -0.380688
-0.110975 0.283294 -0.338614
-0.146217 0.272820 -0.349196
-0.237369 0.166820 -0.302689
-0.210792 0.201872 -0.240685
-0.226772 0.193564 -0.263105
-0.197086 0.036978 -0.145139
0.013673 -0.308232 -0.134076
0.003849 -0.319978 -0.105126
0.017498 -0.345587 -0.052225
0.017750 -0.333250 -0.079977
-0.028881 -0.318197 -0.083642
-0.017053 -0.336053 -0.057167
-0.037252 -0.290220 -0.136659
-0.022395 -0.308186 -0.112139
0.101398 -0.318694 0.934743
0.132817 -0.295555 0.932692
0.073332 0.001658 0.902739
0.049226 -0.037757 0.930891
0.038632 -0.066348 0.918590
0.246504 0.062028 0.794418
0.261671 0.025438 0.811688
0.251838 0.008997 0.837412
0.291777 -0.039073 0.806027
0.296353 -0.069192 0.812524
0.272340 -0.013485 0.827422
0.288682 0.004336 0.781558
0.281997 0.034973 0.769486
0.032815 0.137981 0.708181
0.064878 0.161256 0.652546
0.071457 0.142609 0.698771
0.039627 0.119188 0.740740
0.149517 0.105770 0.780888
0.123113 0.118630 0.756554
0.110561 0.134869 0.727866
0.093394 0.118455 0.750542
0.117568 0.157699 0.686665
0.296959 0.241277 0.090276
0.253604 0.243189 0.136046
0.321647 0.233319 0.000546
0.164349 0.157175 0.385536
0.159914 0.159199 0.397627
0.133811 0.175966 0.432540
0.181605 0.114359 0.410579
0.191783 0.129140 0.437483
0.210848 0.133601 0.273309
0.211593 0.146217 0.233874
0.223218 0.110070 0.292207
0.212336 0.116174 0.320154
0.243319 0.054919 0.372997
0.238127 0.075217 0.293728
0.086518 -0.417205 0.785020
0.113658 -0.412852 0.767393
0.078418 -0.433362 0.744599
0.004417 -0.445664 0.724785
0.084794 -0.462763 0.711580
0.282124 -0.074358 0.281801
0.276444 -0.026711 0.291746
0.268482 0.024786 0.267161
0.254461 0.036406 0.333977
0.261443 0.003879 0.373247
0.270235 -0.015798 0.343880
0.254009 -0.069662 0.345684
0.289579 -0.185193 0.088015
0.299255 -0.127384 0.095455
0.278090 -0.154472 0.046850
0.287348 -0.062990 0.034333
0.285061 -0.101295 0.035695
0.301665 -0.090228 0.078330
0.196097 -0.255493 -0.016154
0.213428 -0.230564 -0.014649
0.234404 -0.185769 -0.012853
0.223840 -0.302499 0.383331
0.239762 -0.264687 0.372353
0.226672 -0.295841 0.354736
0.159909 -0.378157 0.332307
0.182813 -0.352643 0.304424
0.119971 -0.383063 0.224890
0.128473 -0.383021 0.229251
0.126429 -0.366743 0.233614
0.071516 -0.374282 0.051168
0.068890 -0.365774 0.018802
0.033628 -0.362426 -0.009553
0.106511 0.201290 -0.575158
0.120687 0.166106 -0.548200
0.095168 0.157066 -0.561474
0.275826 0.032533 -0.358531
0.150246 0.236180 -0.530379
0.113529 -0.081728 -0.462537
0.115237 -0.050843 -0.481345
0.167530 -0.007048 -0.470451
0.177845 -0.048017 -0.474398
0.346266 -0.104937 -0.308597
0.325577 -0.125786 -0.319429
0.357170 -0.124145 -0.333931
0.298403 -0.058303 -0.266959
0.301208 -0.008795 -0.259743
0.215762 -0.132399 -0.156036
0.211722 -0.122408 -0.181660
0.295580 0.080506 -0.292998
0.274196 0.113499 -0.333174
0.297327 0.109405 -0.336569
0.269203 0.209249 -0.413496
0.236227 0.229353 -0.438761
0.235279 0.251595 -0.383520
0.244104 0.215076 -0.230571
0.216661 0.232688 -0.224596
0.177363 0.262365 -0.242497
0.177770 0.247748 -0.208244
0.213968 0.158796 -0.141104
0.237268 0.127253 -0.148242
0.125347 -0.297655 -0.073343
0.105006 -0.299165 -0.099037
0.136781 -0.274513 -0.100986
0.144675 -0.251998 -0.124989
0.157886 -0.272471 -0.065527
0.222082 0.056681 -0.030440
0.208441 0.113713 -0.083368
0.203779 0.014706 -0.095739
0.225460 0.038836 -0.072507
0.096509 -0.260623 -0.188051
0.105405 -0.232723 -0.229460
0.127010 -0.244920 -0.172002
0.076807 -0.220978 -0.258264
0.133628 -0.199987 -0.252676
0.160057 -0.213953 -0.162606
0.146825 -0.206382 -0.210574
0.235029 0.253604 -0.322254
0.234704 0.254535 -0.351559
0.170399 0.279903 -0.313490
0.198198 0.272283 -0.329299
0.194368 0.269901 -0.295750
0.165446 0.277370 -0.277982
0.301344 0.149649 -0.342509
0.290314 0.191961 -0.313625
0.299477 0.163103 -0.313823
0.113652 -0.174395 -0.341769
0.142941 -0.166517 -0.325981
0.145194 -0.173524 -0.297541
0.118369 -0.146490 -0.384260
0.457861 -0.124380 -0.344864
0.060936 -0.054127 -0.484484
0.090501 -0.065182 -0.478528
0.138017 0.262304 -0.482235
0.065477 0.283754 -0.526485
0.131338 0.177252 -0.544904
0.279478 0.068308 -0.362491
0.271547 0.085418 -0.391103
0.039115 0.144081 -0.552477
0.070216 0.185379 -0.586271
0.073000 0.162471 -0.560115
0.216682 0.072392 -0.442514
0.410524 -0.056381 -0.314905
0.392989 -0.062084 -0.342277
0.104026 -0.423886 0.431585
0.060618 -0.432860 0.424592
0.015114 -0.419349 0.347725
0.067317 -0.423210 0.377865
0.073162 -0.412901 0.333318
0.229939 -0.353088 0.667768
0.235530 -0.352265 0.630289
0.214421 -0.371170 0.618396
0.196761 -0.382892 0.649492
0.182007 -0.397371 0.602748
0.171973 -0.422768 0.687507
0.118931 -0.434695 0.604718
0.117658 -0.435778 0.575717
0.167542 -0.407314 0.592007
0.131964 -0.426914 0.630172
0.169911 -0.387915 0.590008
0.186653 -0.394395 0.562916
0.190726 -0.320824 0.196861
0.194878 -0.320223 0.226132
0.209746 -0.295533 0.204411
0.198191 -0.306813 0.170342
0.198447 -0.299298 0.124066
0.221376 -0.262812 0.062574
0.236760 -0.246842 0.101801
0.227866 -0.261806 0.126803
0.249910 -0.231064 0.172062
0.231412 -0.218907 0.221772
0.232253 -0.256544 0.154500
0.249638 -0.226587 0.074938
0.262042 -0.214517 0.149739
0.292937 -0.154519 0.145723
0.312424 -0.073232 0.136199
0.307466 -0.108530 0.097921
0.305451 -0.092002 0.166032
0.209291 0.085951 -0.015861
0.198771 -0.330379 0.822215
0.190730 -0.348030 0.801098
0.173393 -0.368075 0.787142
0.145572 -0.385389 0.789637
0.123848 -0.421441 0.712770
0.176744 -0.387049 0.723642
0.178080 -0.379536 0.751736
0.197632 -0.376481 0.697080
0.197881 -0.367942 0.706211
0.232555 0.075232 0.389777
0.237845 0.055810 0.429462
0.225204 0.082665 0.425719
0.210783 0.104681 0.448179
0.231095 0.050440 0.479347
0.111237 0.190057 0.269597
0.157265 0.155728 0.241532
0.171320 0.162230 0.280686
0.146764 0.175333 0.330295
0.193522 0.133497 0.353273
0.132442 0.204056 -0.031190
0.225865 0.227438 -0.048165
0.037668 0.221989 0.260781
0.062659 0.220481 0.238043
0.059451 0.218950 0.278447
0.040212 0.219108 0.340105
0.089602 0.200966 0.378197
0.119856 0.194778 0.306826
0.091857 0.207238 0.316893
0.267131 0.207049 0.398396
0.269333 0.136919 0.727762
0.223215 0.077852 0.791889
0.228023 0.049484 0.818950
0.194103 0.088312 0.792849
0.188600 -0.011153 0.872849
0.159538 0.010104 0.889636
0.188220 0.018450 0.845549
0.205286 0.034693 0.848363
0.209505 -0.002795 0.879618
0.028543 -0.350021 0.921457
0.307722 -0.229356 0.723097
0.291841 -0.271363 0.672563
0.286190 -0.263336 0.737756
0.273959 -0.266862 0.769399
0.296130 -0.227319 0.760557
0.280008 -0.239955 0.785864
0.223099 -0.317288 0.803725
0.244971 -0.285539 0.810285
0.214582 -0.309748 0.781274
0.264071 -0.315668 0.757072
0.253387 -0.311336 0.737275
0.246286 -0.335888 0.695807
-0.060518 -0.287894 -0.106387
-0.072111 -0.292874 -0.104686
-0.113348 -0.280744 -0.035678
-0.124741 -0.256518 -0.050957
-0.114461 -0.235002 -0.106822
-0.103148 -0.261120 -0.082082
-0.153580 0.182021 -0.140769
-0.144964 0.204511 -0.157358
-0.100476 0.235703 -0.159563
-0.191555 0.228374 -0.249755
-0.121086 0.253839 -0.214416
-0.131865 0.236307 -0.193847
-0.198839 0.222910 -0.428499
-0.203684 0.234253 -0.389322
-0.250072 0.122871 -0.295617
-0.151435 -0.138362 -0.216400
-0.270371 -0.078581 -0.281604
-0.278188 -0.047231 -0.273295
-0.252450 -0.055384 -0.262876
-0.300214 -0.115619 -0.328870
-0.324766 -0.130738 -0.359760
-0.073829 -0.036262 -0.483411
-0.098449 -0.007893 -0.483561
-0.055448 0.276418 -0.514379
-0.094016 0.230688 -0.532367
-0.075401 0.219001 -0.559454
-0.080166 0.196898 -0.536947
-0.219279 0.028366 -0.368204
-0.226674 0.060891 -0.389978
-0.055973 0.173848 -0.544157
-0.042990 0.184717 -0.569283
-0.192301 0.089716 -0.425120
-0.267029 -0.061844 -0.361521
-0.328731 -0.060435 -0.346687
0.007046 -0.373016 -0.004730
-0.020369 -0.373807 0.042973
-0.038171 -0.348954 -0.010163
-0.013850 -0.362434 0.001227
-0.006321 -0.351047 -0.029253
-0.086559 -0.384476 0.287514
-0.104314 -0.382656 0.333542
-0.095928 -0.375597 0.254799
-0.148624 -0.349707 0.369975
-0.156844 -0.331753 0.346246
-0.163527 -0.328908 0.388979
-0.149577 -0.284229 0.036917
-0.179512 -0.241870 0.033534
-0.232855 -0.121850 0.038333
-0.235610 -0.181908 0.068517
-0.256619 -0.090738 0.093117
-0.242955 -0.081756 0.048581
-0.219501 0.020373 0.234178
-0.237580 0.010323 0.269023
-0.212883 0.015171 0.303908
-0.218491 -0.021503 0.275351
-0.219817 -0.012884 0.285867
-0.226418 -0.044377 0.278860
-0.227477 -0.071650 0.344670
-0.223084 -0.039690 0.329869
-0.246583 -0.037709 0.362118
-0.211558 0.009880 0.337408
-0.211353 0.003554 0.375466
0.018167 -0.428699 0.781356
-0.010111 -0.422978 0.792650
-0.029432 -0.440191 0.708984
-0.010669 -0.465583 0.737630
-0.180785 0.124962 0.332978
-0.163466 0.111909 0.359351
-0.159680 0.133343 0.282965
-0.206629 0.070867 0.249592
-0.197520 0.069190 0.285920
-0.089554 0.176368 0.416970
-0.128186 0.143765 0.421498
-0.187661 0.206389 -0.039931
-0.137963 0.196752 -0.033406
-0.006594 0.212539 0.349336
0.014759 0.219175 0.311236
-0.018260 0.211165 0.291910
-0.050077 0.202444 0.269913
-0.068768 0.191182 0.307708
-0.055814 0.192779 0.348075
-0.112810 0.102204 0.786327
-0.108737 0.072264 0.825686
-0.142767 0.096743 0.787613
-0.151555 0.060831 0.827279
-0.176168 0.060805 0.809912
-0.166258 -0.025672 0.894025
-0.173401 -0.000492 0.870262
-0.191205 0.009983 0.847789
-0.125592 0.006563 0.890830
-0.139605 0.032403 0.861897
-0.001449 -0.354780 0.913593
0.016632 -0.372720 0.890989
-0.222322 -0.230103 0.788956
-0.228498 -0.199503 0.824428
-0.260981 -0.272772 0.766939
-0.250200 -0.241714 0.722667
-0.235299 -0.264993 0.740353
-0.190139 -0.332450 0.729844
-0.217881 -0.301642 0.723362
-0.223481 -0.306917 0.692217
-0.187780 -0.313496 0.776355
-0.203412 -0.307505 0.752920
-0.156439 0.219219 0.635769
-0.103984 0.205637 0.630317
-0.113725 0.227682 0.604215
-0.100909 -0.274135 0.935440
-0.103977 -0.244441 0.947415
-0.083290 -0.223799 0.966323
-0.149394 -0.252033 0.901937
-0.131499 -0.275935 0.903632
-0.147922 -0.221268 0.919207
-0.174104 -0.235391 0.884632
-0.195348 -0.222748 0.861331
-0.190589 -0.262876 0.839912
-0.142921 0.146762 0.736051
-0.178493 0.144671 0.739113
-0.196544 0.073353 0.783731
-0.187019 0.112198 0.761528
-0.177370 0.118160 0.765703
-0.107219 0.240733 0.552403
-0.088932 0.218131 0.566847
-0.078792 0.206627 0.595416
-0.093541 0.202996 0.487995
-0.113460 0.233684 0.458610
-0.035374 0.229188 0.108488
-0.059810 0.220540 -0.000371
-0.047946 0.226753 0.040524
-0.060089 0.220850 0.107433
-0.177384 0.142667 -0.027811
-0.230980 0.167086 -0.007117
-0.268570 0.155836 0.568501
-0.274922 0.181073 0.543506
-0.277708 0.186642 0.488959
-0.248666 0.079556 0.706330
-0.256126 0.052468 0.691150
-0.238956 0.034746 0.204656
-0.238557 0.004297 0.213075
-0.253801 0.014284 0.181492
-0.225204 -0.179900 0.304068
-0.218632 -0.180974 0.284329
-0.214901 -0.197756 0.314794
-0.228021 -0.109141 0.363775
-0.254260 -0.096975 0.290293
-0.229719 -0.191762 0.132597
-0.223433 -0.200054 0.100705
-0.245851 -0.257303 0.557709
-0.228545 -0.293278 0.558563
-0.189512 -0.348768 0.659279
-0.223663 -0.311858 0.613576
-0.242220 -0.281639 0.639938
-0.049680 -0.439927 0.562699
-0.019332 -0.449648 0.550829
-0.090791 -0.425548 0.473687
-0.029955 -0.437267 0.476803
-0.010836 -0.445537 0.502274
-0.217817 -0.059777 -0.384601
-0.086774 0.067325 -0.471056
-0.071643 0.003008 -0.492096
-0.110266 0.019179 -0.482839
-0.226412 0.147855 -0.413190
-0.221990 0.176620 -0.427147
-0.030368 0.262632 -0.552237
0.008499 0.262442 -0.549853
-0.068530 0.276906 -0.465032
-0.153781 -0.089864 -0.442050
-0.135494 -0.136135 -0.399056
-0.109195 -0.136064 -0.388569
-0.144454 -0.116046 -0.424588
-0.180119 -0.124064 -0.430653
-0.311906 -0.064426 -0.296606
-0.115002 -0.172407 -0.254675
-0.145223 -0.144988 -0.251690
-0.120107 0.268350 -0.424416
-0.086407 0.287138 -0.307944
-0.069203 0.284761 -0.266461
0.027705 0.285594 -0.234191
-0.002006 0.283657 -0.230833
-0.031167 0.283831 -0.237482
-0.192872 -0.023179 -0.164394
-0.184922 -0.052176 -0.168180
-0.168141 -0.085819 -0.148339
-0.202578 -0.043704 -0.138390
-0.131284 0.127983 -0.060104
-0.117042 0.179313 -0.077569
-0.112149 0.216258 -0.139734
-0.102401 0.208962 -0.111559
-0.128114 0.194191 -0.121835
-0.141169 0.141638 -0.106920
0.123517 0.194012 0.614706
0.146558 0.212708 0.572785
0.206405 0.251286 0.610169
0.179385 0.243053 0.598267
0.145071 -0.263691 0.943636
0.182157 -0.210605 0.938758
0.220945 -0.189320 0.908211
0.203092 -0.175802 0.930214
0.223573 -0.216532 0.870166
0.215981 -0.245467 0.890719
0.212150 -0.319055 0.851989
0.213873 -0.272032 0.870258
0.247461 -0.242811 0.846586
0.220278 0.106424 0.767780
0.136253 0.212171 0.563991
0.125325 0.222198 0.450430
0.152630 0.233492 0.507091
0.165663 0.233981 0.448415
0.050889 0.234872 0.034771
0.026728 0.234563 0.084452
0.076832 0.223951 0.115504
0.101493 0.221090 0.069819
0.195469 0.125081 -0.019566
0.253207 0.115368 0.001597
0.277335 0.130786 0.013271
0.322083 0.164285 0.573145
0.315628 0.165679 0.615164
0.326841 0.196898 0.559060
0.313518 0.223855 0.506153
0.327976 0.237057 0.533343
0.315148 0.223342 0.580400
0.323982 -0.102319 0.571115
0.311846 -0.049359 0.551614
0.321736 -0.049818 0.583253
0.307074 -0.016313 0.561099
0.299931 0.020241 0.565847
0.318271 -0.016733 0.595944
0.320899 0.002270 0.628406
0.333119 -0.052678 0.649546
0.270087 -0.140326 -0.004745
0.254591 -0.149972 -0.003486
0.262887 -0.210725 0.425815
0.259776 -0.214150 0.384454
0.279766 -0.104153 0.370146
0.277170 -0.167931 0.372241
0.277807 -0.134905 0.414301
0.193369 -0.347833 0.337933
0.223433 -0.321418 0.320918
0.196911 -0.330532 0.289429
0.188365 -0.335496 0.257035
0.255465 -0.226115 0.294888
0.235533 -0.265685 0.289038
0.222187 -0.283299 0.239964
0.251908 -0.237169 0.326654
0.170261 -0.344671 0.169020
0.154740 -0.351629 0.127954
0.145880 -0.365908 0.196498
0.103053 -0.375609 0.115066
0.122462 -0.371028 0.138339
0.144700 -0.347829 0.086049
0.141486 -0.357462 0.120928
0.453613 -0.099478 -0.405124
0.398684 -0.092067 -0.451199
0.403097 -0.081837 -0.413527
0.320660 -0.072980 -0.412349
0.288174 -0.069277 -0.409481
0.281470 -0.088855 -0.377967
0.314686 -0.070128 -0.379273
0.261057 -0.105901 -0.453557
0.079924 0.124666 -0.519332
0.106977 0.122817 -0.490849
0.027842 -0.042704 -0.484825
0.052927 -0.019942 -0.490080
0.101578 0.021632 -0.492892
0.078339 -0.004460 -0.492452
0.211161 0.186148 -0.458503
0.262271 0.183238 -0.438063
0.021645 0.282426 -0.529729
0.395287 -0.123867 -0.438666
0.246279 -0.154345 -0.296415
0.312420 -0.103397 -0.291751
0.167757 -0.179591 -0.222534
0.175085 -0.183138 -0.190111
0.251236 -0.049131 -0.201798
0.261270 -0.062573 -0.233814
0.278420 -0.009584 -0.232147
0.271408 0.011099 -0.211727
0.195580 0.273648 -0.359070
0.205530 0.237877 -0.405896
0.155173 0.284375 -0.356838
0.292264 0.171266 -0.280064
0.249274 0.231056 -0.267265
0.275481 0.207852 -0.273148
0.234494 0.039764 -0.115099
0.230983 0.082134 -0.116512
0.035508 -0.317187 -0.115477
0.069801 -0.322483 -0.086397
0.083242 -0.329619 -0.057838
0.230598 -0.021070 -0.038650
0.233429 -0.050436 -0.027161
0.141733 0.207279 -0.080763
0.155689 0.156146 -0.051608
0.205770 0.144753 -0.105435
0.157108 0.221706 -0.142992
0.244996 -0.037816 -0.175818
0.232662 -0.016042 -0.123876
0.231775 -0.072541 -0.144856
0.223169 -0.078723 -0.145519
0.062567 0.287998 -0.255263
0.083718 0.289838 -0.282519
0.137442 0.281305 -0.414404
0.239014 -0.086028 -0.215521
0.221344 -0.120832 -0.239249
0.181020 -0.158166 -0.274692
0.422454 -0.115450 -0.328814
0.390037 -0.125877 -0.347442
0.173688 -0.100582 -0.436313
0.205277 -0.090714 -0.437981
0.241348 -0.133402 -0.424506
0.153030 -0.138275 -0.392353
0.125418 0.276547 -0.446399
0.051383 0.266494 -0.546443
0.038929 0.234517 -0.577224
0.118858 -0.008831 -0.491942
0.137622 0.021295 -0.489715
0.117897 0.051722 -0.487541
0.087177 0.072890 -0.521120
0.391357 -0.075514 -0.368645
0.083253 -0.447373 0.566254
0.052035 -0.454927 0.581104
0.028528 -0.444730 0.474871
0.032218 -0.450299 0.513249
0.061180 -0.442082 0.478916
0.083707 -0.433883 0.454915
0.241297 -0.347644 0.597968
0.257952 -0.324637 0.558008
0.274360 -0.305356 0.603044
0.284872 -0.277310 0.561259
0.311301 -0.240862 0.669279
0.282657 -0.248871 0.620020
0.270915 -0.270520 0.669112
0.279746 -0.295728 0.653800
0.285207 -0.180633 0.132240
0.269260 -0.208902 0.112622
0.263550 -0.205579 0.340313
0.271370 -0.202751 0.338244
0.259640 -0.213633 0.251082
0.238326 -0.201054 0.277399
0.273203 -0.167910 0.307233
0.281647 -0.109050 0.261812
0.278954 -0.131957 0.303868
0.280232 -0.110551 0.340237
0.281912 -0.085948 0.313441
0.302483 0.012030 0.185884
0.290982 0.049833 0.198962
0.287166 0.023721 0.211927
0.294471 0.093178 0.712019
0.309721 0.119882 0.513878
0.316759 0.177154 0.471241
0.295996 0.162179 0.543678
0.265978 0.161071 -0.036722
0.288336 0.157428 0.009732
0.201579 0.174172 -0.026318
0.320608 0.236752 0.035939
0.028085 0.229831 0.125143
0.039028 0.226158 0.171582
0.119497 0.205570 0.193526
0.088043 0.215890 0.219391
0.183149 0.222288 0.425984
0.301974 0.184941 0.646310
0.287487 0.212144 0.650741
0.281027 0.156841 0.703840
0.256155 -0.048010 0.867794
0.236793 -0.081423 0.900220
0.248953 -0.121814 0.889085
0.276529 -0.197519 0.828838
0.266248 -0.180276 0.852376
0.259150 -0.145695 0.874445
0.293920 -0.138938 0.821923
0.278495 -0.129389 0.848484
0.059795 -0.345678 0.923134
0.047750 -0.326926 0.945464
0.210557 0.204932 -0.462449
0.165374 0.247867 -0.478242
-0.132678 -0.218626 -0.077375
-0.148771 -0.207417 -0.052097
-0.175487 0.024448 -0.043239
-0.170702 0.057346 -0.057232
-0.162013 0.086892 -0.051721
-0.160496 0.113956 -0.089224
-0.168409 0.081695 -0.082915
-0.200905 0.058695 -0.105041
-0.051050 -0.201917 -0.302137
-0.062508 -0.217235 -0.253542
-0.068566 -0.228080 -0.220245
-0.052924 -0.248430 -0.202204
-0.044405 -0.239344 -0.234433
-0.041487 -0.271631 -0.171715
-0.099263 -0.225479 -0.164178
-0.076397 -0.240179 -0.180882
-0.095409 -0.203155 -0.222129
-0.181228 0.253940 -0.308750
-0.116217 0.275414 -0.271195
-0.157202 0.261393 -0.276087
-0.145777 0.271041 -0.302360
-0.091969 -0.155688 -0.363571
-0.100839 -0.165297 -0.332769
-0.057720 -0.186129 -0.327060
-0.083592 -0.186152 -0.288923
-0.097280 -0.075690 -0.446692
-0.074885 -0.099936 -0.438035
-0.310939 -0.128329 -0.437669
-0.263833 -0.137796 -0.422639
-0.276757 -0.142799 -0.384244
-0.244758 -0.147990 -0.381517
0.003544 -0.111916 -0.453541
0.028634 0.295471 -0.452072
-0.002592 0.293151 -0.478416
-0.006616 0.294903 -0.441846
-0.017377 0.243326 -0.574222
0.024826 0.198770 -0.618039
-0.113123 0.128609 -0.463270
-0.196373 0.024921 -0.397512
-0.053804 0.124976 -0.494788
-0.061022 0.154983 -0.515557
-0.202681 -0.066582 -0.432443
-0.363970 -0.036003 -0.324466
-0.381310 -0.081370 -0.332930
0.015584 -0.454317 0.665140
-0.014225 -0.449193 0.682225
-0.049772 -0.435745 0.686246
-0.064148 -0.435577 0.612046
-0.047832 -0.441431 0.639922
-0.029305 -0.448480 0.618642
-0.012119 -0.478647 0.592291
-0.181754 -0.324024 0.443995
-0.188472 -0.332061 0.505615
-0.233985 -0.242449 0.502103
-0.234274 -0.263074 0.525070
-0.219663 -0.270410 0.497385
-0.207513 -0.252816 0.454763
-0.260507 -0.195712 0.536519
-0.258866 -0.233496 0.549466
-0.254399 -0.225589 0.545480
-0.265139 -0.200342 0.565222
-0.263731 -0.236375 0.670952
-0.271899 -0.196837 0.597591
-0.267934 -0.216257 0.634773
-0.288033 -0.111434 0.641994
-0.282619 -0.141851 0.608973
-0.209542 -0.066016 -0.003102
-0.197051 -0.119227 -0.014422
-0.214792 -0.126638 0.005968
-0.253661 0.015607 0.566229
-0.259672 -0.038661 0.520719
-0.270846 -0.036662 0.582188
-0.282625 -0.047930 0.644332
-0.287116 -0.094859 0.617171
-0.278179 -0.018492 0.653453
-0.272031 -0.014124 0.653007
-0.274720 -0.019675 0.621292
-0.279127 0.235832 0.528990
-0.258145 0.072554 0.152969
-0.245468 0.059163 0.187412
-0.224844 0.116592 0.189918
-0.175304 0.162025 0.443380
-0.196209 0.130213 0.468817
-0.101796 0.185119 0.210426
-0.079044 0.202158 0.176916
-0.182472 0.207538 0.406419
-0.017995 0.181187 0.608966
0.018671 0.145768 0.637481
0.008949 0.190578 0.574013
-0.007891 0.197556 0.545148
0.007765 0.200923 0.517522
-0.228273 0.265557 0.609666
-0.228443 0.219598 0.650913
-0.245828 0.151543 0.665055
-0.240540 0.132968 0.707015
0.018311 0.041548 0.858204
-0.007794 0.035120 0.867215
-0.009541 0.060669 0.835138
0.019190 0.069656 0.819870
-0.080945 0.100485 0.787448
-0.046494 0.097917 0.787129
-0.076357 0.079923 0.813956
-0.040755 0.050456 0.852736
-0.075961 0.022263 0.884997
-0.073579 0.057346 0.845202
0.018976 -0.415995 0.811004
-0.017254 -0.389821 0.855374
-0.016496 -0.397606 0.881933
-0.026756 -0.402512 0.828145
-0.068155 -0.322717 0.916673
-0.037440 -0.335027 0.924683
-0.052091 -0.312840 0.940822
0.014030 -0.261504 0.974412
-0.180513 -0.181031 0.899521
-0.190092 -0.128447 0.896688
-0.184813 -0.098711 0.901952
-0.205576 -0.098240 0.877172
-0.247112 -0.124201 0.811585
-0.232629 -0.061016 0.834163
-0.241723 -0.090299 0.819490
-0.225230 -0.085951 0.849040
-0.232797 -0.134840 0.837327
-0.175536 0.231803 0.648966
-0.165393 0.209373 0.672715
-0.208898 0.250899 0.628532
-0.037910 0.196312 0.502821
-0.066977 0.192860 0.486688
-0.234789 0.236621 0.113176
-0.253983 0.227675 0.091409
-0.084942 0.178318 0.351570
-0.096065 0.174132 0.325615
-0.086723 0.185896 0.277841
-0.077419 0.195813 0.220647
-0.164097 0.149190 0.225133
-0.158182 0.143952 0.230550
-0.158029 0.153479 0.283536
-0.126197 0.152808 0.327031
-0.143864 0.129663 0.394161
-0.189726 0.065040 0.375299
-0.171715 0.096474 0.357244
-0.191128 0.054788 0.455260
-0.157214 0.120560 0.456276
-0.282875 0.122448 0.549350
-0.253468 0.092346 0.572461
-0.272142 0.048695 0.562247
-0.262758 0.067256 0.639854
-0.260072 0.044897 0.610418
-0.197392 0.011940 0.422670
-0.202827 0.026830 0.391213
-0.218532 -0.039582 0.420531
-0.222457 -0.078419 0.426953
-0.219333 -0.045320 0.450074
-0.213661 -0.015570 0.447403
-0.249860 -0.144888 0.125020
-0.245378 -0.102164 0.195923
-0.258894 -0.109717 0.157045
-0.254528 -0.123332 0.150116
-0.198194 -0.234874 0.086725
-0.176013 -0.292528 0.107042
-0.145683 -0.295783 0.064573
-0.164029 -0.276994 0.076937
-0.127646 -0.333400 0.161105
-0.162848 -0.290141 0.164835
-0.210928 -0.219479 0.153370
-0.182542 -0.260694 0.136891
-0.169081 -0.287431 0.199996
-0.154035 -0.309104 0.220404
-0.206000 -0.250844 0.216952
-0.104261 -0.405458 0.697195
-0.119581 -0.399520 0.670806
-0.086640 -0.421926 0.623076
-0.143300 -0.383732 0.669566
-0.178027 -0.359995 0.557150
-0.185061 -0.355791 0.587001
-0.157721 -0.378117 0.601408
-0.120340 -0.404178 0.614267
-0.107060 -0.412507 0.580059
0.009187 -0.433002 0.417759
0.023428 -0.439579 0.443076
-0.020298 -0.433857 0.437935
-0.054510 -0.425339 0.447387
-0.030399 -0.414688 0.354044
0.001780 -0.416333 0.336463
-0.303091 -0.035916 -0.329461
0.021964 0.168050 -0.577469
-0.015623 0.144976 -0.546501
-0.209756 0.078746 -0.401863
-0.265343 0.114149 -0.376941
-0.241234 0.092848 -0.350762
0.011586 0.225614 -0.584981
-0.015550 0.279164 -0.534640
-0.006081 -0.095509 -0.478118
-0.407867 -0.114086 -0.331573
-0.377070 -0.112220 -0.336069
-0.225891 -0.110887 -0.279180
-0.255788 -0.104566 -0.315532
-0.162754 -0.134292 -0.081321
-0.155297 -0.164067 -0.109975
-0.131479 -0.191853 -0.131812
-0.237573 0.021804 -0.251100
-0.243299 0.075311 -0.270809
-0.219106 0.208159 -0.413980
-0.218040 0.223446 -0.359970
-0.082269 0.267233 -0.213728
-0.044483 0.274936 -0.209373
-0.081448 0.256815 -0.186342
-0.041316 0.262257 -0.170266
-0.011935 0.263657 -0.159549
0.014690 0.261793 -0.141456
-0.186370 -0.157583 -0.019968
-0.164707 -0.184510 -0.063001
0.156996 -0.166043 0.960855
0.121016 -0.153376 0.970384
0.107314 -0.045948 0.934889
0.098620 -0.077253 0.940827
0.124638 -0.076027 0.949638
0.222991 0.191271 0.687580
0.208468 0.165816 0.714090
0.264549 0.232556 0.645061
0.241777 0.217107 0.663701
0.027187 0.195137 0.541979
0.025148 0.202955 0.494126
0.066702 0.163047 0.518005
0.042704 0.186219 0.573238
0.036007 0.176956 0.607747
0.083876 0.177083 0.614749
0.052159 0.183122 0.571270
0.097059 0.190318 0.548405
0.119454 0.190129 0.501102
0.228285 0.213260 0.378930
0.140656 0.192646 0.215886
0.154142 0.192190 0.182707
0.232512 0.183752 -0.031118
0.290351 0.190213 0.136453
0.272370 0.211624 0.143586
0.244358 0.166081 0.185025
0.251518 0.100112 0.494344
0.302374 -0.111613 0.804511
0.314738 -0.124056 0.771845
